49.992211511032295,-32.4888925406109,4.789256997808549
50.002365574564074,-3.267594663180375,-18.594319368678462
49.95975166025975,-12.730088638070598,3.667371227197414
50.08918622857554,-37.3302303785909,7.8525611315031165
50.000576385305415,-1.7667136046295613,3.268975098100923
49.998847555940145,-9.776842401937124,8.87662321844007
50.02151462306898,30.776479903759714,10.748851789408846
50.05004232280784,-24.365753253548466,-1.1389987196785112
50.061672821832175,15.093499388108233,2.7681362063496175
49.92275301295395,-35.26721073389615,-0.8283813086247378
49.871816437082884,-2.706698816522182,8.141898419297839
49.985416212039006,-40.695449238069294,3.3615029696586762
50.102775710214374,12.268529979605688,3.2611155049862557
50.01269473189409,-24.09918654569031,-10.546520289260814
49.95024785581251,39.291489187556266,14.49440710457621
49.958210047116964,-20.790033713025018,-4.665991025925426
50.07831804155755,18.82671118491792,4.307404561894154
50.018334472008796,-28.66736128520269,13.418831398386537
49.96963552037678,-18.944714956564972,0.7920728884258137
50.00023895846773,9.17890279854788,7.355761900160239
49.89164566596127,27.426073740689706,-9.431749203277704
49.909292720096026,-3.3229524366094947,-5.1118039704008424
50.053159477051146,16.094320472614797,1.408395710154662
49.90055142768043,13.103769057771222,8.982948122283629
49.93030629160706,-31.69434522433587,4.33760387858154
50.051255244063185,-35.366375184318315,7.350111057379
49.98334222341076,-1.2396519996217734,-4.501114153462323
49.92082555070187,4.321824279013296,2.8753655593721
50.032155606715286,-8.244089327436363,-0.4544122049118244
50.020418544113724,19.62736054723514,-0.6152258734973493
49.989375502106334,0.6323430011454306,-12.928416588103435
50.02400766240293,-0.4134345098560046,-10.779999901871223
49.97473351356902,16.719575580032014,-0.09770639326077435
50.04707807937381,33.210397959670374,-9.282065912805887
50.02284512264994,-12.515817197061946,8.700857077864287
49.947083619357876,4.120105066994513,-8.05047956484805
50.04255735987508,-6.980608208676575,26.155856881502725
49.97948464800799,-3.6122605018108773,3.2939532665234026
49.99378325997083,2.4144976688506716,-13.129365799992065
50.04364070221198,-21.048082645002477,-6.204795850299397
49.933093232904525,54.193294063658286,2.7773961050528073
50.09996315752726,-6.613617103452768,16.452552395768127
50.04755117300191,-13.852027122717965,10.530008467884626
49.97175224317832,21.67788489981082,7.009497165048121
49.97632506904856,-20.69962615039674,-9.647254815071554
49.950624957247655,16.747991330852397,-8.388846239891159
49.98919952317433,18.4434982698007,12.063011839573386
49.939982994161745,-35.69354530774233,16.329875288402427
50.01446822253948,24.24387901996503,11.642371482549288
50.008178922290824,15.047152855839506,-14.016571359039732
49.98135063810006,-14.786761115622038,9.301395842712855
49.897505394455074,-5.060300143632634,12.411752464211304
50.06762038814555,-12.076819943091504,-11.732180021225226
50.022666665312556,21.157185227921246,-7.831673079916773
50.042629285977966,7.0524783977431955,-5.5976474485943175
50.016349772294156,-15.21358052242008,4.516092037995938
49.9515382583482,7.486255519799143,8.651715602989887
50.04333762099181,-17.02094736504533,-10.548258143720531
49.88710247873698,10.03448007797222,6.832852404579033
49.95725716068513,-25.87789023946801,1.1610872502371434
49.91879574915383,30.885006196450814,-13.406371933265474
50.0230857649615,-36.458978943973605,-8.402880649872337
50.00343875613494,-14.540627047785277,11.561317966353386
49.951560351928265,0.7605519799225715,-8.299538807666497
50.00498706590411,38.88693548295413,7.71164648559087
50.021462256168654,8.219064676373515,13.65264911117919
50.02518218389718,2.938751142301448,-0.8853762272860533
50.05164001518516,-13.518573039296314,-14.261142791174125
50.032999015521284,12.215322909486142,3.1387391416680703
50.031078671920476,-5.006335862027301,-18.552306186756166
50.096241690239346,39.61037499990755,-9.916261861883418
50.027566699847,-2.1627045246206626,25.72281718921451
49.96667963589294,-3.889312899818554,2.4907030233323395
49.992014815267865,15.25486826231595,6.360762725408617
50.01464118144713,16.965539070901727,12.152015323706285
50.01375211846812,0.8898286734038653,1.4331104621097834
50.06138752225722,11.231196498391542,-0.24378679745873144
49.939813888123595,26.378340440133137,-8.220218390356683
50.013573074609724,28.104690936468273,2.3544487882849667
49.982401585762545,29.996596980604615,-6.353324927471778
49.97316943941896,18.667706313189626,-6.629988810869788
49.97437267991143,28.54725634446484,0.48317574573584743
49.973031335583876,-8.55679193831983,-8.725243696755683
50.05979557267901,12.533637238897386,-1.3809625855526042
49.95033079356864,-14.081660616859859,5.098821247034181
49.9570517571641,5.724522459226246,7.849848591789839
50.04338771216904,-20.06616190852853,5.325442063361191
50.0229605028861,49.684263103374604,-5.63493831877545
50.04401819571629,5.215456804434325,-2.6567914121646377
50.01890512944464,-7.098116774705476,-4.14534595034986
50.03920456052919,13.330527502780281,-5.511255503298387
49.94442900357588,4.554880216225591,9.08309163157049
49.89400767622589,-16.844626614103674,3.607099980325157
50.01367440012104,-0.9202201550710581,3.456200643318602
49.94032781539995,-6.037407480585979,16.12777207824513
50.039734926057406,25.436695078877133,-8.127972983229425
50.055911955025856,-11.25384607362637,-6.3097413188227724
50.033903267595214,-0.6025278518974935,-13.446046145246761
49.98276647109262,28.106180430890753,-8.177119116371856
49.96903381121307,-11.12168270973466,-6.979012762767084
49.985408851536434,-10.18327130132145,9.215285141686008
50.05795690304088,-19.940507960269095,-9.1591032251544
50.056560159782684,-22.82680579948074,-7.95952683583545
49.970793503484636,-14.44122528977579,-4.315354321156706
50.04146031972226,32.60345938661231,-0.9115405602624107
50.03187754152607,-0.06517093930958615,-11.153429120796595
49.9799759180142,13.114862431989065,-16.8515344422363
50.0813950798642,-28.61264820507522,-7.4457981604211785
50.002468803511036,-20.328692060702952,9.5159879434559
49.864834325183374,1.8519080698034716,-19.978045196291372
49.9041460126605,-5.692038044460039,-10.769972118749234
50.057541441208734,4.10824644796938,-9.00109625605301
50.0144632757273,17.448893323987434,-9.147657475463857
49.921244432041505,-17.86454768915101,-1.6373501144429903
49.99229104207295,2.6879603911472256,-10.48772940468783
49.96189861458466,-1.996250671944072,-11.820188924346429
50.01265016806966,-32.42603185095473,-11.468133459094638
50.018925856762955,-29.632181885402133,-4.0932493341282
49.97469134852083,24.24300924321946,4.156874498598005
50.05891635896638,-13.558425208904893,-1.4444401709960546
49.977491849120945,1.6646455180655007,2.2835604027866694
49.98984613416797,7.29685975055843,-3.0320050295607963
49.99356872598513,-10.44973313921117,11.497392386228764
50.00157888256896,-0.49633487208249005,6.1618426233110934
50.01944242777391,8.917728064825633,9.059336713971078
50.070117371695844,23.919524187503587,0.25633183811606075
50.00335758580349,-4.574689570523504,15.836981968904439
50.03150824556489,-25.98276143631489,4.655698288807061
49.98232896554281,10.276412178733148,11.192683373275038
50.04381759667509,-15.541542437836494,1.7986143919731805
49.95739231328202,-24.60021499311891,10.805552800946376
50.05470380254511,10.86019861554172,-2.9713275173948923
49.96403363224334,-11.864444559828303,16.63748329246563
50.02310275724413,-43.592439777961296,8.50497946384466
50.05867342594743,8.144572843720502,7.1871083145535435
49.99301734167045,-34.93103953339319,-1.945726071542561
50.05136746154151,9.259528083313347,10.391509089146094
49.99681882914415,5.5842049783757854,2.739107847517566
49.97356570937722,-8.912058204693018,-2.4487113109846685
49.91384139288475,-2.954394311942239,10.453191727201258
50.05783681492436,38.29521718750832,0.9540855038011984
50.08044020980991,-0.21048727332651315,8.799682404005349
49.95248136802045,-18.714550699873552,-1.7726367998295942
49.98754859890197,-18.69790622533135,21.711432736688803
50.079265871353336,16.70120808991451,3.054429181266658
50.04255796844947,-25.23665383531302,-13.858877277934228
49.95829540950856,4.828867320420639,4.251682241483031
50.006608773635,-53.47923730502838,6.165693741199699
50.00819723226122,13.430827666259106,14.502316124292147
50.07683991618908,-9.007954827039894,-9.587875653883348
49.92773735522674,-19.776327610408124,-7.1947270232466956
50.074913150964406,11.257018137436418,-1.0920493844532053
50.03375459520477,1.5594200631474662,-2.56244518009709
50.11012556362884,8.419833332296728,-13.62682243465254
50.029530205368,21.93710865140172,-5.440816295912597
50.02058118815819,-23.506443910866352,-9.662776024278827
50.080994561946135,5.379111958268047,-5.07572288838141
49.91320758885093,7.362165075912692,-15.92329654327737
50.04341939868934,13.623028666295234,-4.386352320716343
50.07613200688908,14.932510682766234,7.106913317649069
49.92566188324593,-15.536032219657104,-1.0588871593895655
49.998237065675866,-9.038539029826003,-8.999313374577731
50.027048025411624,-14.477567461805748,-3.5988248940898964
49.971462218576264,8.241851257644212,-5.313422012781529
50.06274224233369,-11.463797828505305,-7.924483818301231
49.99031286732531,10.31160868259038,-15.083435910938837
50.0255964971388,13.968414878786707,-27.52087376226965
49.9636761571087,-19.639731412891873,-6.56617480300279
50.02174107338834,12.571450581902736,4.615666815564276
49.85620708509309,3.082925904698724,12.751978543053603
50.03027440149483,-16.340234022685244,5.216623419960954
50.03006136710921,-4.058514429092256,6.656204831509812
49.95431087567563,-13.586961085859425,14.37735544903386
50.023883857354825,2.6578936671444136,-0.7064182024028183
50.000853881226206,23.582218990528794,-10.944993674589552
49.946022202597625,-1.229486251229637,14.62531206545879
50.02192955503867,-8.048609372401277,0.2200138018662296
49.994384737559294,18.336217270161256,-31.515242538896047
50.03048589480113,24.976992219216456,-6.759784324229154
49.9926211085673,-3.9864016513341753,-13.486503425112335
49.97628969214204,-11.946875249504103,-9.00372689364456
49.972763769162256,15.63054644863172,11.13715551174458
50.072590268575915,2.766112437599641,-5.153061459160024
50.03072649384751,-13.267379982389127,-7.089769159553558
49.963248626407825,2.9619213405880163,-11.015223477869867
50.076638536150696,39.714570025515044,2.4805596055769885
49.955512581933874,-7.336884794080051,5.9544505202095
49.974838895449594,-22.030635077458424,-15.674026507843989
49.970619004034134,-5.044475940005034,-15.469395873753774
49.99239709427655,-16.40754379912186,6.524518636990435
49.89640680584176,-27.74869165959376,0.6140885317740397
49.945279482688605,8.634613615912679,0.5624021036907931
49.96491864363602,5.785594506921335,-15.593578087992336
49.9915177259243,6.99321042333345,-1.3619396018059178
49.995208006274716,-14.403783643633467,14.703818751632728
49.96871546640613,-3.78969667079383,14.116834968535755
50.01911738360415,-10.25072485356427,-21.513691252735907
49.93320432500722,-17.449788391749042,-16.10112569555602
49.929637894140654,-5.7602434127718,12.241095767626657
49.9277731575654,-35.15457104655412,12.326942995562465
49.97227243595858,-27.001433012050725,1.3955067961373524
50.046493272599044,-1.911861801615577,-5.359113008444677
49.955889978149585,-33.42977550057506,5.486695233676481
49.88886243318977,16.21602627310414,9.42716143614153
49.95632118077275,4.837221260343832,8.823317160550374
49.90782054096904,23.156453270837357,-8.818513313953872
50.029848712809816,-42.751709049307955,5.929146125426312
50.0134374264902,15.269829507678205,3.6808118251376163
49.95781852597062,26.570739171059337,3.5317925078788908
50.05537599300213,-5.115431532223727,12.408187939535988
50.06530871093778,-5.905126576308653,-2.718060574514464
49.93430927909651,-13.486884252696498,-3.4645141629254663
49.86314959799966,31.551895171401036,-13.727501170027299
50.013158878481505,-28.78081060718472,10.530311985276697
49.97792733020784,-18.8093571724887,-14.803895571777854
50.037756845929835,23.260646108771603,-2.197223308214115
50.04646138885097,-21.290452379034825,-0.4457921771858297
50.048109785116935,24.530040688259795,12.252500013938842
49.92819374478262,24.976127645810013,-11.841444629752258
50.04534837619501,-3.0492032402607046,19.67443918770028
49.96371746708467,-7.5905352191837565,19.608282834130197
50.03290048737571,-11.823604523661938,19.017992131889795
49.95264669760908,-27.418523899371078,13.623641438427356
50.082877003102936,5.265477095653633,2.9796233868226363
49.95430834715249,26.446589578631116,7.716410025050247
49.993114239157194,-19.05760745125572,-1.115421019311781
49.923541540016984,-34.27971888708291,-7.836292046889791
50.007668176041555,-7.285633744915128,2.3332211286221667
50.060792373628075,7.60192742366164,18.87048343987826
49.975755273591226,-31.934012721118044,-7.527156595289072
49.984119702020045,-12.251807138486866,-7.26930877886946
49.99925157549448,-7.034174465892543,10.559242056998416
50.014989443013505,-9.902588639704323,11.753870404824282
49.9393739645927,18.5737008317855,1.4245026558830565
50.10933831694213,33.26776771069267,6.274306672950818
49.96028643282814,2.0705343956282958,-7.429854768986529
50.01449400903284,-16.33670350321936,-25.10792165269923
49.993587468421495,2.801300457744066,5.033553423403192
50.04808484778815,-34.92412727415989,-10.967141573602525
49.91055441303545,-11.665068959839518,3.4474437089319347
49.999923224311,-4.852478677758446,0.5827723426829587
49.98411643200498,-14.574769167443453,0.15950094639199305
50.05660917593651,29.94795659250496,-10.89155947150125
50.01006507986385,-3.0861903166741733,-7.832176401604033
49.98585506931783,13.480738881186628,-11.996715881260153
49.99885125650421,14.369084724558803,-2.3821285018446736
49.99864759359176,42.839870283017675,2.6815138917132915
49.96354736100683,-20.005869383787967,2.5821263412573274
49.99013468665159,21.475853668675306,-3.8576535659903692
49.93206010083737,-2.670855541676537,9.345432806664636
50.00485067024429,-11.22282598794989,0.19919965654326396
50.081495066010255,-32.015599424442996,-3.0718620392730287
49.95963503199766,28.772911451170398,-9.180707162699793
49.970017796099796,-18.5850040476881,-4.768631115751984
49.97914408420523,-30.244943761275334,0.1348830047444397
49.98946836420837,-9.490047045831894,-21.06739819221656
49.96967249940871,15.79100508363454,-8.782781836041613
49.96155766260693,10.037379166236477,-6.775711010437759
49.97930181424421,-32.36464820202957,2.7820849300767465
49.96512186866442,-26.480248336788144,-9.306665844165584
50.01902148702129,31.890597901077182,10.712481612472894
49.958929360165314,-16.554336112580323,-7.616980305393248
49.91440230918059,-7.0516900717158935,-11.537528452504148
50.09715333306397,12.549905163902439,-19.6594138408151
50.02721602133501,-39.84238166810599,-13.8842732430957
50.04764243475683,4.776087918121686,8.665076691827004
50.09728554292618,-14.564150743912469,6.293456804749651
50.08412491887673,-37.496452434244055,-2.5868025652425204
49.97228414128746,-40.372020811461546,4.110261484988654
50.06426387718234,10.311522230264835,-15.988032494633206
50.03009869452539,-8.809883618716508,-0.5103394674888742
49.95169549560236,22.275645945368574,-7.547142128957924
50.01578458867352,-23.459058920264862,18.16853390560884
49.96199458592149,-3.9221852185086306,-0.0839307132799823
50.00185333344906,20.414670700015062,-4.640957634639191
50.04408496662844,-16.809168611516448,-9.695202398808943
49.89428189278225,7.390404930188578,-2.17030960257862
49.99282466457957,18.244251081436442,-22.704590875510153
49.99756788535347,21.679135777505127,-23.385645999507933
49.972699872193296,25.518377383681777,-8.341560065208505
50.01516513578945,28.193219315770897,0.9794979558497534
49.963629991794555,-4.342234280504336,14.556052594181159
50.05888147390794,7.461054600288745,-14.093489263348657
50.02329546924346,-17.476709126479026,18.731402133308713
50.02041812512249,-4.811266756783846,13.799441567251558
49.93990246053427,-11.873168040162323,8.488332628576122
49.97812484442945,2.8523032948051164,6.004448382633658
49.98663312001837,1.9353816135382365,-0.386207968777672
50.0285829065112,1.868659603918009,-2.6273358628152756
50.03339641292723,7.364669626515824,-8.29049521878117
49.94057943773851,0.9621343283379781,-21.316646372078957
49.966623886717855,-23.213275425229188,-5.565162337110249
50.00350901381252,-19.672913737865453,0.3268016279676793
50.0442571033364,-20.31817126307147,4.40722190850403
49.959973734203594,-30.479193753285102,16.123779802551425
50.09040330816943,29.465285380382625,7.962519543901148
50.07877340414285,-14.277142114302046,-5.203231539488936
49.863475481742235,22.9813298271648,-0.0057319574919149074
49.9667939317709,29.773232604447028,-26.016266903981478
50.09293674913428,-35.34645894777128,2.0106850226819093
49.95911420423331,-5.7094092267760885,-5.742611088506773
50.003280187447636,4.978266668048915,24.730812763823966
50.057063186709456,27.488582339983342,7.861800271456178
49.98573557352627,-39.42609810098047,-10.21560220808561
50.110216936476824,16.00521073195312,-11.563694815034182
50.07565511102475,-27.23946420457144,11.366447069056395
49.93677245878468,1.110331708958784,-5.148259206164441
49.971886624089734,-14.87964594558708,26.731666137759095
50.01825709820389,-4.0241510647527265,-25.340964343376417
49.93429746425284,-0.2248514687571229,-2.8859178632505413
50.0110008797075,-24.125927449301546,-3.161367975703089
49.934963991196,-44.86649545661202,-14.513653397575734
50.06973663676338,-12.200844340147448,-1.9089467560722484
50.090657635961776,25.032471726034142,0.4942772013446007
49.97809897067618,-8.647602831271206,5.7991908352842625
49.90848178109917,7.274967957616864,10.182859111145827
50.03009306031766,-13.002527007003696,1.6274588518368975
50.01408960046516,2.357851033219974,4.071520682415377
50.010879276402086,-10.748645932414433,-13.130711927409887
49.95358947370593,-7.0813406328561745,11.047963916773426
50.02930482989007,-6.008097254637058,-10.96442985294176
49.9804725208868,-41.07478669641063,-9.456624675731106
49.924968226849124,-19.52883181225829,-16.098199206401603
50.04971549566963,-1.623210281724168,-14.321572251642824
49.89789652678751,4.791209543247717,-4.812852301041785
49.888209084994045,-6.400560177940745,8.112296826732296
49.97318821301262,13.995665042042969,-13.749637216922276
50.01188308481007,-20.943782795521816,4.191297945522314
50.03983024374738,5.322053307543918,4.114693323700882
49.91366798208357,-12.894904718421254,-1.7538148693122937
50.06078000729719,-7.9420154676881,-2.5311513151893346
49.93040719439127,-13.78989725331284,-8.29346327749078
49.925907330867226,-14.010880120570315,-10.078602606108895
50.01213758945511,-33.69900290644385,3.189698477964282
49.94857864003854,7.632755880847793,-16.24901035807413
49.973097700996455,44.79389178282368,-13.38464770926311
50.015926195106125,-16.803944392387272,3.6221043915424307
49.97635168101739,16.184726251967877,-4.8573540883777575
49.94387682211562,-8.444518275100757,-4.596499578829462
50.04117958535292,-4.923477961089023,15.049665616887175
49.9542743004077,-24.039753429812688,6.986464289755353
49.931956956460525,-11.467349402665374,-3.547328789504118
49.98298450350335,0.7263946387061287,2.9951510975351834
49.98975645720299,-15.625714191274103,-11.423121694632659
49.97825755067514,-20.320904055055923,3.0600080320218814
50.010082096047356,24.362469058692646,15.486052895623729
50.01043176001699,20.437473952114807,-10.554884342567712
49.960252101773094,-0.5199391692614062,3.471943744149035
49.96443374925378,-7.341974448062637,2.553218758186998
50.062769464718514,-14.718033024739736,19.719810732517438
49.97535259007164,15.33126114623597,2.1319259155335324
50.03578798848584,-8.232814509329183,-7.4344799964769015
50.0810082771872,2.2393639903264977,14.461500574525365
49.97039169657794,6.1887522609307,-5.171409431102573
49.942703495061174,3.8955528156479398,-18.825414185319254
49.92296850651979,-14.342914219213327,-7.378164208666099
49.99431282347383,-7.165049772015708,-3.646883648119961
49.94491357612253,30.67487125411446,-2.971913211862771
49.99421652226492,-12.071981795953224,11.99716921003494
49.96956856430909,7.32544648048174,1.6228730900536952
49.96347223369391,-0.5112568131761632,-0.996617815953067
50.02271780432193,21.422214477104976,-4.483137497867848
50.03951637352089,12.090326609794865,-10.835851815474863
49.97634433991395,6.9814741161127785,-21.560190413688428
49.96496042365988,-8.392358060819095,6.295475166849988
49.97531492755322,20.529359305660858,18.525736459204087
50.07246136442406,11.045517264017477,4.0273789827856
50.026667632189344,31.306561301498114,5.832055095686868
50.05575679167875,-26.591306943663344,6.031058115464941
50.06724566078244,-3.2878206690974237,0.8272759865113857
49.935235409333075,-0.2169103987754547,-20.02587000690496
50.027537209450735,0.7644606280588672,23.779022118513314
50.01947839103336,-11.686881729452306,-10.626108178011885
50.07301138799309,-13.47521774306241,-7.1664616309067055
50.0112173297406,-3.4940839294587485,9.563033495637901
49.97576762260329,6.640871659394183,1.5214651222258322
49.9861217572511,14.424185527447854,-1.0261667480786538
50.01395289339992,-16.0551795526634,9.805487256555413
50.09122999002927,-8.415484562360225,2.4548551205686002
49.918831776178486,-17.69019327739291,2.62472322735185
50.03811411758423,-44.440204782951184,-14.739995547233613
49.90237326423602,4.081728711926887,-0.46693599786773804
49.98605717727416,11.69312948621023,-0.06082963658556212
49.87651050079557,-15.568714604159315,6.918524093277351
50.04065664892843,-24.84782456931761,-1.3381594678595896
50.0090304281018,-6.778651649421194,-1.6064560226539701
50.04580051210415,5.537595874685637,-18.47709283992451
49.91270125011891,-27.677917607061886,13.449521866973745
50.03645522092383,14.751857024529686,-6.9278840166261535
49.99216237317511,10.975061934317651,8.787818748210254
50.04474897173304,-3.4931407803775567,-0.26578731388352766
49.994205853641695,-8.836198242347415,17.378633714493574
50.000359514712436,10.165245981547514,-11.581297019338482
49.97508882221488,3.415896377690756,-9.600652833295815
50.03624945718349,18.652558772416572,14.760463481710342
50.08803168036839,-6.182861958597725,-3.411601769576695
49.956171454828585,27.26934324933193,5.20780418677826
49.98599456544516,1.6784331100966476,9.118304317430734
50.07349714902414,-3.4113613110250816,11.960340256720453
50.00734564493194,-7.015880075621153,6.626470292606562
49.92977481834369,17.117720643080126,4.144782537100116
49.97025547185858,-1.0709712406210712,-1.5941472044171425
50.05405616220057,11.324327930157454,-5.916430324367638
50.03748702113242,-4.396270239774691,-0.09066162874204137
49.99077611276052,-6.4059714504408936,-1.0646484028122656
50.09742995034789,-16.15988649801408,-11.732510912194536
50.00389016612907,-33.763919887149626,-15.791540287344642
49.964316868328105,-23.280447383695776,-11.46023734903176
49.94707632390424,12.3872142537374,-5.952949473316762
49.971212621271384,-22.02289311785217,4.862497103671739
49.93346493798483,-2.382393435148225,3.4849390922153893
50.037810200742406,-33.23525865249957,-2.3479206494769063
50.041447505595634,-6.663455912645063,2.502495932912537
50.03915796870027,35.31033757208049,5.7041920890971864
49.948252178094236,-14.312196778979887,-1.4662672256780267
50.0051306725424,-20.694488883167956,-2.816022603996271
49.998235593336226,17.594666354885717,-5.087257711262725
49.978848808776796,3.5867450925070328,-7.3444316224901005
50.00346469814913,26.905346642094,-3.583397294434825
49.89612429536713,-30.258492757602824,-11.007987905197073
49.97224475517153,-40.921714771549425,5.427839792054324
50.08542448341418,-6.6506965200328585,-12.599969316330561
49.95268657006321,6.7336156724943494,2.016099555407864
50.021074824826286,-0.7355060557011686,13.079018525215748
50.06218896938316,11.180328464206877,6.507631393178513
50.00859762032857,-8.92050904269372,8.162252154593922
49.976389308469194,-8.655306266368383,-1.2427411867512748
50.027331864602296,-26.410992044721272,1.8335189123826345
49.9855410303421,9.106985720631888,-1.478861717419486
49.98305357403566,1.8739065958290126,16.40826182660395
50.00059343884224,17.836825524149614,-8.950130841253916
49.97529896380294,7.7761010207110886,-11.451318940022986
50.04441260463399,6.720615508817977,9.036342639832164
50.055694694282685,30.043959023368835,9.515942498571123
49.985785396380415,-22.142618420191383,-11.868889120602212
50.0108640718585,27.0861634463207,4.319203725586028
49.98577524357334,-18.251898944948163,3.0298343075676804
49.9969354881417,20.527033681655382,-4.574641444040975
49.99068325232599,14.603066899543162,4.533827695916039
49.99910134611647,12.244170917012129,-0.5921111354348021
49.966179872507944,-25.249426687873424,1.603334933048932
49.96284022819696,23.17711799130852,-5.880050963516719
49.874320786186566,12.460014642811203,17.51703529743296
49.8914946289864,-2.02287983503099,0.07710724946161189
50.02106502420908,12.021658730263301,0.25614423705225575
50.033977346629186,-17.501819631184897,3.515840392158
49.98134063149521,22.299789293763954,19.055812707891054
49.9518508440013,37.431347905905604,8.248520157716193
49.951674456225305,-27.840538487879392,1.0500947277383341
49.936782704727904,15.933342862444144,-1.4161303896923354
49.9880227693493,-2.752009663932183,-8.248384739982862
49.958882453347634,11.693992051625719,-1.7504874274217472
49.941715784899806,4.984808141330873,2.0551677738227223
50.03153502983216,35.75750625483953,2.5579457001051384
50.08742430338859,-1.9217998647437757,4.928833054191008
50.0220215331958,-5.218917618335562,1.035161542335357
50.051795129061986,-2.6922385977204275,-6.916149179475821
49.98932497117959,19.890294320986946,0.49077936977004316
49.97833123659288,10.088794640336001,-1.1566925759596969
49.97503884593549,-12.821875387406813,-5.71968768930025
50.01484695188411,15.94741272913706,-7.066206452952829
50.06033873774858,41.82321445742657,-2.337714639324782
50.00714249480796,4.7984835328331314,-11.855371999808675
50.03485976745384,24.798735480041834,3.8539406647436527
50.01868857291544,-9.942085502230453,-6.099016191679186
50.01085967672221,0.5235499100814707,-15.523419800859715
49.99448191772704,-12.729007740266452,4.225702430766001
50.023780505813505,36.00189539347555,12.181571839877865
49.991075147357115,-20.07864846009403,-7.682210666310816
49.883447939722316,22.080747931050073,19.072625061469513
49.995025898568635,-38.83761047025189,-19.3486863895761
50.03293666573519,18.57345219339806,7.095506875197965
50.09977931412546,-0.9361618721084832,6.6292371549251365
50.004009289371936,-26.3518835997577,-0.231522971208585
50.08312949976978,-18.722511154366487,-9.292483181735477
50.0601264145595,6.454342242065114,-9.602067533213424
49.967280438613834,-3.1471693890983277,-13.170395075863048
50.01583022167597,-12.597927981343087,4.162336035458493
49.97828743106801,-10.801329888336038,17.683114883670033
50.04652362777867,-5.88669592217493,-2.3430792758665286
49.9399288843592,29.34482507577156,-12.460726366819035
50.02353259161265,-26.30394049401093,-12.177708185982556
49.87904086729548,-38.32184437091142,17.112230976608846
49.97553101960008,-23.50319435592557,0.4960810217107347
49.95830146489173,-17.5422025299681,-3.927811359547217
49.975865186202114,-17.745032911378015,13.776611258445447
49.96024209086732,21.986809673644487,-0.006522902043288897
50.00894677968147,-1.093403358328102,17.635616378121217
50.024455382099504,8.5718423835793,9.953277423698466
50.030621364776096,13.483733729889384,18.27256188387293
50.00457790156039,14.298879444813865,-3.198416572799694
50.012432279657865,-15.251894105592774,5.726747314685919
49.92001661833165,1.9472395418049793,-3.6125570534821376
50.042186822263716,-2.2003093249332846,-2.4901470101178678
49.849506386675806,17.74773093732704,-12.870890146580752
50.0033003442481,36.929042176919154,0.6687006685718451
49.97887538507791,-21.870861847057952,-2.0089614992066576
49.94766854538199,-9.970380172561397,-0.2610429842289238
49.98259479220837,15.707351662854379,-6.222691614180266
49.96682541332029,-2.7709259701501896,-0.80414204501925
49.93268759203776,-17.332846121173375,0.07260392714424907
49.94838830261746,-8.408405899031038,-14.198326608077693
50.005587009716436,-0.7337841252337552,-16.351342751983676
50.02563324313629,-2.5004257943496193,-5.844072299704305
49.97720347863269,-4.808090896012924,6.188408091871911
50.014598063971796,-14.012921353335786,-0.15877956140010513
50.0198294277635,15.635254540428898,3.7908418645946815
50.02437690723097,-8.9555344913526,22.86739252693814
50.03047931217221,-12.211289794221491,-14.220820719614244
49.941024211092866,-3.0154658047735268,-14.376776991081972
49.975315920285766,-18.555176051326047,-6.640908997422025
49.93926722530658,12.804712627749522,-9.194783606843728
50.00583311786597,24.508219895215824,6.852076741521222
50.0006848703892,25.65827008885222,7.982450538055934
49.97079634737146,9.184541194208924,8.498651650968347
49.95582448143064,5.757503866010697,-3.603316228366347
49.96214529167791,9.955284869299327,7.7179279451925735
49.88984457429681,-7.9120198884779604,3.523217106158356
49.98735624425124,55.92282531947323,-4.138134700142468
49.94783815610789,-11.329644471723796,-3.719343114229946
50.02464599083717,28.25501293947791,-3.444614544008713
50.077610385331035,-17.908048264350093,11.095226468555643
50.03088020073855,29.523877599722823,-2.5326095108405733
50.03356626053076,29.688403880244522,-12.311391686846939
49.94593612113629,4.272446538436985,9.53953703464132
50.0715310554429,15.803791234063313,5.4517258739949
50.01844329777481,3.5575706710233224,2.981602269040428
49.975944253870985,-18.66059294304118,-6.460139443684015
49.95913095799805,-1.1134583473276047,-20.570064573983412
50.01185203078522,0.5677549753418246,-6.328030370782899
49.971990923477435,-17.830932095103968,15.921849633927103
49.98748364868318,40.7719864756224,-15.452523289635943
49.990499262654275,-9.814240700202316,-5.491837674041874
50.06165726439458,30.60639495571882,-3.767336372013605
50.09619293428955,2.7906004333520755,-7.766631352534272
49.9341931380346,-34.29184839592972,12.890438552677185
49.99869034271891,11.914898906083893,-1.8429315442176717
50.02827109659464,-7.555420853336373,-3.655631292290326
50.01888978473259,-15.537696694823866,-11.283170642458717
49.987460943273405,7.017975983733726,1.3975293290935822
50.03533495578526,26.337811672699697,-9.888493101879405
50.02245069154091,-5.54189063941452,-13.692318311871587
50.03555204511113,-5.614616591416519,17.590496964950095
49.97812485968176,-29.76643540675939,4.063131670543329
50.0754609064843,-63.1758938101407,-12.056502809039717
49.98550185558605,23.57796606117507,-3.071388524938499
50.19552785815084,3.984546217345828,-9.756602868149209
50.02336860589087,-3.860527132511325,5.197903815244494
49.99255567350767,7.21505080824668,-6.616353733730393
49.89453964051702,-15.985393534868898,22.428964010165398
50.052185512076356,-25.77068182552809,-5.331238273234331
49.999244418908454,-1.472835015491958,-10.215505935692406
50.04736672322051,37.731753763097224,10.895617597373384
49.963491048112296,-23.835425222306394,16.830438026090295
50.04466565243067,35.20725085603027,20.1474213031718
50.056745180504194,-8.241114870636144,-7.675344448085953
50.01135812604052,-5.821104308828864,-1.9195711733287035
49.933874588749845,11.391539245130204,-13.57960612852749
49.9927941726524,9.835754095563296,0.044190279865576165
50.038244158102636,-14.622406360097875,10.634697370040906
50.01618227529312,0.28126319065920186,-4.165374098307396
50.040644779679134,-17.894117794064176,5.326839109270307
50.00291723574419,16.690917896075767,-6.76659382301333
49.91647859663844,-15.220269730271294,0.24070718486444784
49.98724121613176,36.538658552914434,1.9139216609332783
49.903763310576636,-16.596506026448278,15.938955266491993
50.01022526257272,24.558382434181656,4.139416379555987
49.96182343308801,-8.952602017740558,12.053778716962409
50.040996663410155,20.688493803893987,2.553912541839525
50.11082818760025,15.415957719454576,-4.662358028790802
49.968580135664105,32.181402474719995,6.6108126884772735
50.020597340287026,-19.199951323606744,0.829907998648491
50.034218026893946,-9.505914498080442,1.8709297501552147
49.99092898230727,-2.6384809884118896,-5.931231785828824
49.87496899134489,-21.47228239860507,5.7218298387206845
49.923716202156555,12.099375034824437,8.830705583542578
50.03447756887733,-16.470946470259783,9.817964244306694
50.011568427315815,37.394284112809274,-5.3229770730573644
49.95280762795749,-18.566468072531336,2.889200760027537
50.03591760500734,26.100820934163238,-8.434096112923731
50.023107626573086,33.41381637882982,3.6204295965453066
50.044057395542,1.0596807778612307,1.2269674866182154
50.049447702491,12.763086707453027,-6.811463996251777
50.06645542569433,-2.3921542155278885,3.5613425269249626
50.02446255831904,2.2341659553135096,-14.583536378829294
49.978708725625175,-21.300834134569545,-10.840004275903159
49.95499353920331,7.303982597343649,-2.8238138909453996
50.0235395322273,-24.79395966994378,-6.625614269740368
49.90699918669073,-27.992559513097028,-2.9670869726373077
49.98583064094384,-14.79396044701308,14.09889436847035
50.00117104884359,12.82726739330811,-8.439321711740504
49.976510510774105,3.294833394941976,-14.019077077655558
49.999651851033796,5.036254914765982,0.47530137615028906
50.014688864720796,-61.84536606977674,5.091502728624836
49.865554221167834,-14.593857930897078,-7.4753817791178845
50.008091708868164,-2.058530348830748,2.4483949034413084
49.92481830505011,17.207734814048926,-14.653022244031249
49.97566470172631,-16.253812585430847,8.348542104016534
49.99629629886963,-7.152018081588773,-1.6085986764808546
50.06040025702473,28.76293724081428,0.269484937785074
49.941953968077705,-3.663055029211228,22.427977475557807
49.967714884560806,-42.2935871079217,6.786927149106655
50.10341658726126,-4.161121567757531,-4.787810605883539
50.064348315869196,9.107604960545384,-5.869113882082202
49.98711289795408,-22.263335720156718,-14.53707960236148
50.05470272610341,39.72639738211911,-13.268240306104815
49.920437121590716,7.171128185614508,7.375374879358296
50.05775313323574,-36.61026927080176,-3.125034417930585
50.0297628899367,-11.521461871240868,16.472529713133266
49.909291616255885,-7.972460010996646,0.17143212605969194
49.89094754069924,12.64600230732286,13.773489273574754
50.0694987764764,-14.044195176665102,-4.357474939865374
50.009334826383224,-54.16478428043029,5.291388137078356
49.96142114879165,-31.598707699910875,-9.057526569289838
50.02397150553086,31.124003411855146,-0.49428250188831485
50.04396864746247,20.815881618224346,-5.722962796526049
49.96232607249695,-10.26203426874016,9.06053609144248
50.01666188498215,-9.203674516488327,9.691055007032757
49.9998764887617,-9.964780941080013,15.596658464538564
50.02931370197734,12.287758562258794,3.588228456294238
49.91764748778076,1.2652366344679125,3.958761301589797
49.97725036658851,-25.031867887084292,-0.6523290838019578
50.01462892482718,18.931767964506744,-0.7256513290813078
49.993417434313244,10.000657741619616,-5.637833568340019
50.0198405988496,14.737704737471745,2.9009351842914715
49.92198614317689,-5.633352849366999,-0.9863787543017812
50.14179304273951,-6.4365636493926885,-12.56872605839153
49.97338788914231,-32.71941261546197,10.147381961539429
49.92185894196906,28.8990946381116,6.335220550546942
50.04467356783895,-24.85501900522193,4.553128944549924
49.92194897758088,18.966222266311537,10.327121163396457
50.01197087905108,-37.58296046379327,0.6475873630916367
49.98073872998153,6.572851209749881,13.16350584268266
50.00005792867677,29.333869525053736,-8.382096314858059
50.024702555917514,9.309862071473088,1.923941282925858
49.91546655668843,5.904929597277918,15.254070506070018
49.974071454598054,39.52616696325078,7.657220127175677
50.03285708943225,-10.72461397428047,8.628894587954939
49.96883056312586,26.866979041307154,15.62962467536914
50.064242651035684,8.960034043332914,-25.023962352536333
49.97451899673551,2.762361928843605,-2.2174452599236485
49.935328816869216,-32.43824225082359,-11.592391593161276
49.95235610761424,-29.316066211629934,9.895254241269217
49.91517359358552,-11.663726945298531,3.782267925988076
50.07273254407075,17.041020801451634,4.091399160771676
50.07729631920748,27.809267900937513,2.17603949006665
50.0037125722573,-7.923990652029755,3.7843554301698603
49.959168980411164,-5.7820212684544074,-1.5014048646395932
50.09189810092323,10.067255888550648,8.638625202517318
49.95925571490032,-24.73954304432063,-11.400508112912107
50.00535751968895,15.89942918428563,2.391516769435275
50.045486930750535,-65.76174496959494,10.937604102514024
50.01518763748495,-12.905621785658228,7.216232996244223
50.018685689534244,-0.06105984490349544,-12.070331894276565
49.949392350479435,27.89079503092657,-9.2754518665131
49.992761043773186,12.600885352475487,9.233106347391782
50.00614393474657,-20.88726930212653,2.537342950528371
49.994866101014345,-4.746861569723983,-7.220228589664299
50.00849846145199,-4.316746027701257,14.796115340852493
50.05627163142631,16.37483142052119,1.7783837703270495
49.878776355705,17.083022056918175,-1.268172738557835
50.02679792801979,-21.87520967749385,5.935313495803681
50.06770201778327,-4.44422929129331,-7.247873363843688
50.01028810513784,-25.966013309929203,-2.1080614710005294
49.96323024008478,-9.089152282780121,3.8204058729207526
49.901618002088384,-7.958563494743402,-8.767720897918789
49.97276606267743,-6.086014498913839,3.55484679091457
49.91925001935753,-14.958358716801538,-9.666775315918382
49.94369514287132,-2.170381346013025,-3.6003323132957963
49.98836237538087,38.85599534100983,-13.397248457594893
49.97789039623557,15.586259918618783,25.145551815990768
49.97862701542056,-12.230216070748131,-8.41647556203424
49.97209077917386,-6.757060548561822,2.325421006937711
49.99475094469418,-22.061333067440366,-21.194527672973894
49.97836472111555,44.31506624210624,6.809054683397293
49.97477383685872,-22.15760912222168,2.5923033973131586
50.05679712634102,-7.240056757294574,4.891859158706111
50.004873485759674,-16.34616476541652,-20.6454142648066
50.00106247020513,-23.12034892289162,-5.497353999284498
50.04180243705367,6.916119475633684,-9.064157606080768
50.01916670931231,14.263984449024578,0.11665333689769593
50.04356401619626,24.84619247815296,-2.126670404221332
49.84335023303149,-5.238334815425285,-8.334086763375455
49.949067786654574,14.837709678918731,4.126783549760703
50.016783018648034,0.17432780558476907,4.923405006335007
50.01835460415491,-15.63681977900546,5.11089288546238
49.97149116712909,-12.13875676924987,-13.851551419346713
50.06464547232368,-8.426091399766749,3.2925070228645215
50.04843321219744,-17.42458677305579,7.8835031586767865
50.03591296952476,-13.67664492050765,-5.1916449431790985
49.942966632384426,12.160444078801842,-9.740900301379085
50.03383042883517,33.07131296543302,13.315705316000326
49.98615082077173,-8.346379415419255,16.607343630944502
50.072586272051744,-26.46672216333041,10.087644524200472
50.04194505387572,5.329653588115411,-0.40129797492957503
50.071838078753814,4.156459768150045,11.663338031562342
50.09511791664804,4.801436575613699,-28.71591244541487
49.95827858203352,-27.32795390203609,-2.3628936442971287
50.04745951061474,-19.20455549081854,1.1958565646201034
49.92797327033955,-29.687630874139913,-19.165115634684618
50.040418268898264,-8.922263797500602,10.352896176279446
49.98690977763394,-34.415994517575456,1.8167227316406238
50.055208024391895,-10.017866729792345,-4.076228837813443
50.03136697365292,44.4829846341959,10.91595035431442
50.05863191954409,20.88577333363684,-8.605735463266516
49.96898816766096,-17.52423440106383,16.093073634420325
50.063410150630425,7.773940787501719,19.33871153696691
49.94502550271498,-13.878637682662024,-1.7872941594508263
50.0348225000683,3.758335140195001,5.18509237655424
50.021369247224435,7.111085661764173,4.071751996151303
50.03396756025011,20.45730697882295,19.71315230378694
49.9928108928921,19.288124948390955,14.163849251350792
49.99733303103277,-9.66768029664192,11.324756688895908
49.925542780109424,17.982517124728723,-2.209069345908951
50.03231251638533,-1.491934720376482,-13.538968050122856
49.95209042806273,15.716249346472077,-6.414396972010543
49.987663839544126,2.326924129916078,9.286724235501262
49.93842716694003,13.815691396735708,8.87776650777785
49.95399557610762,-5.7476445894084875,1.080258732791807
50.026552971295715,-6.792238325222263,4.771457636939949
49.97046547634247,-3.6796184412736554,1.7795173901555779
49.988735857159284,-11.706536676948398,20.77563379532421
50.03033688326043,26.794745000888305,2.7608508725262504
49.94830275519548,40.8316681353446,0.7143426889750513
49.979526302934076,-23.473626418642688,-3.552981366598271
49.88709280496168,-7.39292312225249,-2.2715937886781497
49.992709598263865,-21.614665363044473,-6.82608409694435
49.9427538089575,28.77045200326714,0.412825775917826
50.01914982370746,-1.0518286604658065,-0.1991735316703903
49.966854130186654,11.487293843781945,7.832027886798706
50.022277397199126,-2.26315873229129,8.719587318532529
49.94364059350372,-9.86133815203268,3.5365327070206583
49.95839327488259,26.330129471520976,-0.1988951702563056
49.93677780825101,-1.4107881477522768,-2.8624117548698265
50.002749748284366,6.113625904418816,3.4776527949128804
50.04468287878668,19.968025946844687,22.063347978052963
49.99690271980099,34.04043338171577,-0.5792967979271884
49.97481932419408,41.12310257892209,-3.187296892151479
49.912492105323786,-16.4950047189349,1.218500295643875
49.914777210279816,28.628817215781964,13.63690468653871
50.00115364078152,16.772876554234706,-7.824924832073591
49.992319993091016,4.43363829194562,2.62671997520286
50.06054781080803,9.881706599222005,7.7405958205858605
49.948161077829084,-4.054584445547709,-14.720451913547254
50.0144275351137,-20.43372701057285,-5.841690936098392
50.02265673552217,-16.807389233848145,-4.047020074895898
49.97964406068817,4.3027390148065505,13.166261290941867
49.96067872697116,12.024401116295873,2.587595806516901
49.94973148914826,-15.663244445803466,-5.251294307443211
49.953334147896626,5.598619470718898,14.296939163105076
49.969801037149736,-11.743372568871173,-6.057284242820452
50.043773929292605,-2.433153924852909,-16.196600034458392
49.95154341774242,-38.599961652982294,8.762735120961025
49.951765612171755,10.810265339362726,8.661336447553953
49.94552135933618,-6.958569955557583,9.555262469061255
50.088662546941976,-52.11897038202515,-3.829903200860472
49.92054378821533,-12.303607624557412,15.854741552952657
49.92544324518461,8.490754498518537,-6.267228700645721
50.00839064631396,-14.227905381278331,14.12723550243601
49.99461832447952,-10.108250418080777,6.036479959963943
49.9505421230656,-2.6606413742024335,19.900165606656035
49.98116138358291,-4.320000116545541,-0.1886222222309033
50.01393508948928,24.54228960745583,-4.393115504641779
49.97498565756187,-19.29698567052331,12.064434177962319
49.95141777490318,7.409968836524541,-10.203673688581105
50.08791285031151,-1.7680778336211855,10.395893747858777
50.05240247845673,-12.57540948364916,-2.6400292106998786
49.948458411425946,-11.56008298485935,0.30304339863554364
50.02622999927521,17.18295597221121,13.375057907421398
49.97503754232272,-6.330241399359885,-9.626467618411873
50.05763310015299,25.44513363192567,-3.7209326778148193
50.05067079582733,-16.421880819366528,2.8637261955269295
49.96960813638327,-41.24374973121846,26.48836527208831
50.072057719437375,-30.195824380811477,-5.274902461502962
50.02652239045009,13.343443056118778,3.8645607651877896
50.00058336543207,-29.75729413409462,-8.561229907255381
50.02733057461526,-3.345028001398664,-1.246032093732603
49.9967429540366,-11.84423534547966,-4.945721847736595
50.006465476477885,12.60026812773546,0.757558537641756
50.085435573655566,-42.29957356160418,-7.9099699683111675
49.963045491610494,14.941055478723706,-6.468120717395008
49.96019194639218,18.84902950981259,-5.3509368987294055
50.08165739036002,3.5477000248999913,3.5142201204347745
49.96431487418306,-14.716351315754924,1.866944219709848
50.076535697137466,-13.285582292391867,-2.6004888161610347
50.01875588340384,-17.71861580855518,-12.795950626535573
50.00238142263748,-4.3084660255373715,-18.93397240270487
50.00996907184622,10.06692788218204,-13.616807241025928
50.00094250679804,-23.607075801353364,-4.9770366794340095
50.03816480368697,44.918772166419416,13.459292127647977
49.92926198458896,-37.519192865767835,-12.206512826733794
49.945351974430814,14.191540329064123,-1.5981102860674679
50.03461343677481,21.07269510994208,2.7979494183374487
50.04214137774197,-25.319392723424347,13.320268879962386
50.060613840457975,-27.43777893062331,-17.352655052142122
50.0094502300889,-6.203797526983788,-14.113963775443546
50.02487289563861,-28.004775069314732,8.69044880321065
50.012449945526626,17.776549761840844,13.613101166627365
49.96440115253847,-22.811904204187186,-11.341763407241768
50.01527666920486,10.507915676798444,18.96690086451547
49.998813196562395,-27.47712459304448,-15.333727634603088
49.99832725169184,5.439177624392535,8.482531190859245
50.05970501797533,5.403293368331905,-5.110144992474662
50.04438355270595,-19.801286123589968,8.184152480607741
49.906140238192144,-12.43360413119003,-12.109051188999745
50.034533675569605,-34.398067177988324,-3.177405385988792
49.97117053664486,-20.2506279882116,-16.20079352570306
49.989846298546276,-5.783688125097113,13.485355687864237
49.92122565271273,-20.325054154095948,0.7245732469631296
49.96911609156828,36.110108314044346,21.52585210474954
49.99542870725967,33.38915628955395,4.934276860630314
50.059848530738066,-22.868777353038688,8.714715002177986
50.06926047530801,-16.63735708998844,-8.790375044885927
50.00797631176931,-4.513176936923386,15.437143083797334
49.89658358806905,-2.224259261503852,6.843562219447381
49.977375658469924,9.211386286633083,6.9645658645730775
50.040744907670884,-7.021346833602724,16.104627613959227
49.95495908547621,56.08855239621917,-8.563625793930274
49.96801539472192,-17.51971857488201,12.773203307818562
49.98900053984476,-0.31245528477682194,-22.420040808582197
49.92824137322872,7.859927386711426,7.919950036493356
49.97883872127896,7.08459298536842,-7.430832720710078
49.89655746101946,12.53229430365847,5.284304489474249
50.04576936608438,-32.45129053538176,5.302061391790804
50.079047239165725,12.19514572451217,-0.2556200387427267
49.87396800168933,-13.610653790052172,-9.163439150412463
50.005211591546505,-0.4546333974631375,-18.327133040538012
49.95422859992171,18.177175860321345,-4.147277843369851
49.96684595657188,-25.650063892539585,6.100276002353692
49.94608887148221,21.36461704033689,7.477971753867827
49.99864471187427,39.89729430854885,-0.1779994927279604
49.98506701868723,16.779471434565224,-1.8627057064862538
49.941222225838146,-14.713146086274072,0.21081612085670223
50.05795750087365,-12.465741699677974,-18.31157010112281
49.946860948469215,7.566082320777414,-3.1211312831638374
50.0782173849152,-29.933330470379,9.538508828745263
50.072233709469266,18.418091130525116,-0.34633621717255975
49.96259373071696,32.15649637585702,-3.5653200914281458
50.028835815596636,2.7051617562038333,18.53046491721966
