130.18307691440913,5.927997315840482,0.13984331488172652
162.55659122625178,-8.25977804067154,0.10844693968109212
129.18567896824592,-6.50764251995069,0.210974911533809
151.3668003705622,-26.07057274587451,0.16440784632737435
135.83401738833348,7.056890619913954,0.3197787047417221
143.29683093863596,6.81195675937165,0.22754797456724232
147.63648822302744,-4.788288848546855,0.22062230237293762
142.93776917346577,23.04396817959342,0.1583832608642478
150.2954238041543,12.489617077646793,0.1244764205766777
142.63372100304085,-30.819012003495555,0.2480036718446061
139.5681748684348,-4.085088672593796,0.24522437332652916
167.58372711648227,-20.256156740647604,0.15496576341197454
152.06787804449215,-25.521860381032816,0.1884933307273438
137.10959218563576,45.525218985036666,0.22546541961355832
142.88471243572897,-4.895126695588943,0.12127328546893879
156.1029500293277,-23.65985771725999,0.20511260349425658
130.38097222972897,-33.43735096235291,0.1751385714314372
147.13435143366002,-15.433760767602983,0.11302933103052448
168.80669265411518,0.8905865782800103,0.18164235161527614
155.2681227155253,18.27158566799264,0.21514641351705513
153.95026397336432,-6.074381772689653,0.26796229584435016
136.04062100593282,-28.614933932360568,0.21144097129562017
142.60344550464137,43.50210944682373,0.23513937614787703
138.63389822734825,9.74792397284669,0.12876052607122188
134.24302707015246,6.8677266807921615,0.2752797732083342
145.84023745946723,11.15493360921432,0.12024706586313055
154.69201208531976,8.267199501774915,0.2701661294600288
151.4551628468568,3.380705709848075,0.15181575651851223
149.99289276419663,27.964255663096417,0.19074261694528358
166.81008220864015,6.957170384577483,0.18298054666079702
141.05959617498266,-15.445565659549503,0.3291025584621272
142.56241362468265,25.5643445493533,0.13589624212120494
148.16402549392382,8.265076150632373,0.1750979231075017
147.49380127114586,16.52698150824508,0.1065902412144924
170.78741298438965,-17.13884571755125,0.18181599452212832
148.36359976124757,-28.4697565492787,0.22287837650695103
164.43222636092528,-0.4518475267850329,0.1660438230768788
142.42216886282478,-6.801915439309018,0.25594620944328106
138.84371738878522,-12.606370444504218,0.14611490312565154
136.11978428182752,37.03625570403945,0.2058771282779744
147.694489024785,56.13063100237628,0.27871565692538597
164.8691785760074,16.13094775882671,0.24967523399599134
150.27469768650013,10.179993419066127,0.2346621517006109
131.54595906931112,13.616565302886558,0.1391567281891794
141.34578162224443,20.303830542542983,0.19031982178184764
145.12862383212237,26.752643324079482,0.23763524924729054
156.30767458141892,-13.698921225223744,0.13046133328291343
134.18192721203394,-17.71951306207637,0.19946619405361762
159.95592345772712,-12.772369389966906,0.25792134806201117
140.18791901911825,-4.079462278582312,0.26775928683506595
138.12640166296256,12.292759564364339,0.24804852060492422
149.84688420875355,-2.6218307218005488,0.20388506793352867
155.79493133230272,-2.4797925037314323,0.207358703580089
140.49749688587778,-13.945757644948927,0.2749711965715989
138.8686078839416,-6.496068376427489,0.23501610104949963
138.90170768149935,22.713001411221736,0.2097239409436969
155.63086618292854,2.818816648944686,0.17147908281542876
142.49135972258665,49.65546667239963,0.1289970976886648
153.19326939126606,-10.860704442836159,0.20242400995721666
161.35449291482922,-25.846244194954146,0.2233123849310167
150.767637860466,0.9774447145367597,0.2637608314476376
126.75469646974152,2.1479407843074045,0.16347493134339763
159.07030370282018,-4.454756247074682,0.16885839588920132
134.1985841804127,-24.87073254540436,0.2352985341553897
147.62720384568928,19.555017533913023,0.2193286633821479
161.40242943682983,-40.310224643179005,0.27640302972439323
155.43760747414814,-9.030510399430288,0.14994606288053883
145.46372470093272,22.440883576805266,0.22779549042172492
138.2472793747341,-7.674821742435492,0.09958992440737213
143.09900215468136,27.70483740305413,0.14499953059415294
139.74375373131542,30.939163610775502,0.16647408517286
148.13906230727625,-11.28455066299987,0.15068544009958318
161.37886848606982,18.383858083881293,0.1538353120028444
148.7980125642709,2.313103939151388,0.2013554900497816
131.1949049290773,5.842631503175828,0.22016948158189564
162.99917654145705,17.595896181715712,0.11968547728368155
144.88215457122868,-4.432869872311405,0.1894819592927307
145.237235307705,34.632901228361725,0.17472708287424174
157.95751727240253,-11.866403539457288,0.21298216249832913
154.87288307098808,4.3527364900763175,0.10297094890654572
134.157841224479,-7.30675540177028,0.24245412073660425
162.16045932607628,3.525875578504765,0.151683150702922
157.22675129753995,19.465774709186622,0.23713238204683085
148.0284789172188,-0.4869261190313182,0.22187867099072794
155.09582611108016,4.145850999594439,0.32047327089721
152.51089252010874,-23.07055105665619,0.24637000173343104
154.95770763358465,-21.828568872603242,0.17293879810450014
148.6309564204615,-8.861722668685545,0.1646587378619662
164.24175990995073,31.25462763620629,0.14394271583247767
136.29845820574798,-6.193717781708679,0.21930349644674219
153.41723024102444,25.156939980466074,0.18101413809841294
133.21301441838406,-10.614838222719584,0.17327278479878847
142.13887479997652,14.040845408938843,0.1697356639152261
145.89812389692995,3.3045532576334185,0.24704205739242438
152.07587431672317,-1.6293200378834825,0.28428763827245196
137.73541191903485,0.964281678152733,0.22512390864580162
145.2092577999014,-5.523376352642424,0.17642127844164715
129.94936508958824,29.96962779450026,0.21358255957079683
143.72347367086775,12.097400907288486,0.17963279067649784
133.49437919788562,15.476811977111613,0.18696792780226965
147.4949719728637,-16.853673101080233,0.2542227001382466
159.08387486169744,-7.5644022179785235,0.18226964385459618
158.58410266913694,27.593683814628665,0.1509761789494832
155.0427647455222,-23.585490483325625,0.11001767984288723
141.65319286818993,17.46325100391893,0.14734512010759437
152.25039757126305,-6.783990912844537,0.16018619505324852
148.97860183663357,13.011086910938037,0.178648499343122
132.4487885181193,7.063439168885059,0.19693892265940355
163.18654248648625,21.708757370199212,0.16720720368163297
143.92843876759244,13.330027944764996,0.2679854214351603
152.64773802481025,0.6542742977054676,0.14096245594798795
158.37069448225643,-4.337788408876039,0.28838998403860466
148.6373251658025,-12.087548162985819,0.09171187100922207
150.58349788223185,14.302462271162181,0.17159091340629642
144.50748915286223,-13.787817451785235,0.19402512000312244
139.62354939392276,24.646009687267735,0.2587448542347889
150.6241108849572,6.804623755764675,0.1642149396491055
157.96526216166825,4.780578013110503,0.21700810233799853
151.27921427778017,2.604406549567015,0.1721576509157838
144.44821378454196,-39.81219366421355,0.2261170311395538
148.05251506314931,20.840944560784173,0.1251466159546824
150.6894229548496,-43.20408160030109,0.13542058664947032
146.57488519383188,-5.404438051834356,0.12412779384544959
151.4447717721308,-23.812463862162183,0.2694488758891845
159.22250976465097,-11.582369996181981,0.26939007854038866
146.89197962875744,5.371162664612866,0.14113902845538273
149.63146257573322,0.34990378728038124,0.18075452087598948
161.4956495585041,44.85302832696483,0.17741104502860205
146.24705741194327,8.067979657426891,0.2276737516380691
137.9790505656594,6.643589226002319,0.16135611296970198
129.46637497703253,-25.938971197412144,0.13409394385794482
136.36157454852068,-19.949182907309886,0.2137749470080677
159.71189337580878,-23.47117815668674,0.16340896841551894
143.6210497191075,-4.180037669572847,0.14960931352634094
144.21621250331754,-26.133994111675275,0.22655303550490194
156.42931916412132,15.962541777623652,0.21651100866663323
167.4633965765231,-20.72642338750397,0.198746769164516
163.04600018542686,44.87278549515338,0.18591876046660538
138.78322773191877,-6.274460330312053,0.13900083771279845
163.89364816409983,-29.130631796398184,0.21490185970597767
153.27218564556145,-39.97903600996063,0.23968552127108286
142.2709531704147,-45.95912277309573,0.1722359850618631
146.23626618658045,-21.902868791036635,0.18275695642211143
141.13417603665337,34.12162010806834,0.0805143953112386
167.05674496530247,0.8444335663742826,0.2093648986010547
141.66683768067057,4.544066986171012,0.1651127696585722
148.01457644887864,-19.630960487846437,0.23313337583624985
150.36906640919216,5.113581677853593,0.25541049978519526
158.11536920941137,-5.838228184342677,0.21869972990758163
150.5659719734816,-8.689497251863019,0.12805458792151594
160.02736479057899,-6.099349453572252,0.24114816354508
144.23355843657785,-42.37825098623457,0.2592742668017249
144.6110179308896,-20.34002416929722,0.19875062090429663
159.2798144604122,-1.2319874991292525,0.24910752280436627
143.35756936875333,-23.35140076268082,0.19218256258637145
153.92536509002167,12.977112341310901,0.1736696723505378
159.89535278286823,8.408756453930447,0.33862243594263697
155.07984829795598,28.732981489254836,0.2349840114166875
146.18659396984776,1.7404737308463802,0.1340943143440375
143.62966878755395,3.7013143602884586,0.21192138544101446
157.45837449533147,-39.83726737945219,0.20517009944872464
150.4969215431685,-22.11295372189174,0.10973553710444418
150.97832138349943,18.733008200919205,0.22011541502737653
153.61987710114363,24.052078631469385,0.2337416341644946
163.74505859351865,6.031197619935003,0.16315020897304097
156.90283977048287,14.555385066599397,0.22250912765362624
139.20746012947959,-10.156458416564842,0.2071564999086477
155.93621216647338,-41.50816693883143,0.22919142107601276
146.7591232323527,1.0501098548257273,0.2045181097751591
166.18724840676225,-5.882763204760466,0.2509003598127084
147.9848479848999,21.152533490822666,0.22257387391289674
166.6055283156894,12.846860387332963,0.2452387883927068
170.3747656476096,-5.892300618861352,0.27757367319994913
149.32258792905114,7.530338048333257,0.17534255346921304
154.9941075801553,-9.2360661623275,0.15107001071700332
154.11355092212753,36.274182722991675,0.16781947888690715
149.37593773069787,-22.89363179351482,0.22024180632748003
168.35077410806537,-1.2564038915856854,0.21038968433383
146.343846011979,13.73435954049436,0.25556103048839834
132.28947336946035,21.856043732740858,0.2156132009887731
156.0912614632413,12.113858212724828,0.19903091905729486
143.97710306512982,5.318556747736965,0.2582314845104716
146.44109455536125,15.23193758077805,0.22987765835299218
153.80813597990786,10.379680376680007,0.18366248666712562
150.60671107906515,-45.498420222501075,0.2561891002376603
167.46564371996345,18.335798235777958,0.23653394558810037
169.2048424906248,20.87387702152997,0.18642824373035688
148.54771212470078,2.416781813860526,0.17629446734415438
157.61083267151687,-31.45752951100655,0.2634976152565957
170.29785851055595,19.45235899278581,0.1898403443915522
145.05478843924723,5.3879411607815575,0.14332733696228753
136.63522476674632,30.45633053114965,0.12277057343392019
155.81245398614425,23.247473026612823,0.12046330293636219
138.9385558511695,-22.304406000003443,0.24929803903302375
148.93749746405757,37.53010492006349,0.20161778492385077
154.77120917336163,22.64273086026996,0.18928519464338875
105.46064029485869,19.01304053496226,0.1956444858357754
160.158825489779,5.241476006984286,0.234089238216798
156.18052794096624,-22.1893147583253,0.1798686874384929
155.0622902715723,0.12688398997134684,0.20443439537202437
156.37480676656875,5.385338516113092,0.1380986476210847
149.569427475667,25.082456460457134,0.19049372704837395
133.31847031913503,14.523033338272285,0.2623062389692602
170.5561954356871,11.056711751314293,0.2226312847433375
148.81667136720907,43.241389016713555,0.2720287755504868
144.83023771617889,-6.550857510583347,0.16136106408338044
153.09471544911796,-23.566145209203547,0.19725687543548742
157.16903306040206,-18.111902760901142,0.2789094099246881
155.93080427018407,-3.0815157630782632,0.12483204012778523
155.2691163167454,32.38464985602431,0.21363749071913557
144.0788242827262,-19.534496850506105,0.1228827288432178
148.90159377611678,-4.625383519691036,0.2599264348728567
169.4506022672771,-1.693189912894919,0.19777602394424101
152.548967551663,18.42778083707177,0.2101978527557535
140.07131600283134,5.828663359341837,0.2542088400295997
154.1258077334373,-13.02341866744521,0.12310872886686326
145.65850506204194,26.542877277057105,0.19638906799365602
143.1576219671023,-8.645128559103295,0.15700523257918791
162.58553826200983,-31.248709336054908,0.22279719730511205
149.08350104533196,8.720464073907628,0.1998936712352243
155.50133746885396,-4.215533326445965,0.18433003223790076
143.12073918224175,-21.68916844015781,0.17433601101436846
155.56726859081695,-22.953684060182546,0.276074739026683
148.4892031041007,21.44774970217703,0.19371639046495154
152.07081675104706,-36.26731981661608,0.23304173557711363
149.04775957717524,12.605004405046632,0.1493603372062952
149.06644659558864,18.60992535157491,0.17727824467036254
144.2603849784244,29.68756544071067,0.22814059451238244
143.26517116817723,-19.833016192799278,0.17231335990290272
142.958912944267,3.4608802309506554,0.2851819530813987
135.85106917098528,-2.434201147521441,0.27208249446849014
162.21310680108056,19.505303477758606,0.18317407320817755
149.90002438061563,10.738833762203345,0.20961341186508922
154.11314936544264,21.77077479105861,0.21992796651723412
139.23367626907614,-20.832145327187686,0.1948072373543092
141.6978241346427,5.389467017828492,0.24879409377519843
136.89751961153488,25.66223351519386,0.1763033569828497
160.29795902356585,-1.8278084024397883,0.25088234763321177
146.55638222079526,22.546246682009965,0.29085655177210706
138.5670315317059,17.787368084310305,0.1737851048455423
132.76190060601792,-35.09705633451494,0.3152413605288195
157.52596988774803,-9.076206780124176,0.24433083849438478
152.86511420729352,18.387773661933892,0.1867334571471819
161.0456019250729,-25.54336813219674,0.20455120003728255
143.5025186447513,20.562711740268057,0.1168168307374739
144.66687945406238,-0.6317651385751069,0.2968228769543385
130.84966862814278,-16.06048220298808,0.19952864611466084
153.65190261789874,-7.176556333402045,0.19001324642187112
148.96005234905218,16.33322673524529,0.17967430755031283
137.0468466214755,8.612343195051086,0.28020808042816125
136.79189779157107,25.920361320884425,0.1873776134458229
161.5954885627246,-12.132403689791527,0.22138996322429336
151.12189417877315,5.5546149499050586,0.25236811698161143
169.1422712648464,27.283243094769777,0.19445203032121797
155.3762950903733,27.80205835459079,0.25866666325993315
136.7999169299545,-26.96777070692745,0.18845222631441763
147.66595292163203,-30.83712643528386,0.15608933136897835
152.27954596881636,-59.80040523258981,0.12508832310597268
146.49110652989643,16.355954046441955,0.2172218214050805
154.04611373512378,6.603638138567966,0.2589428307474549
142.3731440735784,5.644264224459193,0.20179071105527824
151.0429265031796,-0.9491193888859518,0.18881085377611964
133.5586800261474,-9.82417391460772,0.1991066343347736
152.89615418412282,18.133723931982804,0.18061693535638748
135.96260232059888,-30.59967365125938,0.25811660637006584
159.83760734173708,16.394256926410616,0.19995880844787778
135.7781711305828,21.074432881046153,0.22504686082025677
160.21002019694657,15.752095993220465,0.16767695359070842
153.4439847865398,6.088147497318753,0.2052396774620547
162.43140243722175,-4.448076157327185,0.2692210137655313
164.2913742881896,14.028263758111821,0.19595566468773526
129.25072092869343,-42.08983174902292,0.21232458276436483
146.2963868957741,-9.66479601405238,0.16025041903332599
168.45132381876687,19.113666992054878,0.13955099019399983
146.43435128171254,-9.104286120442225,0.2750695530031736
162.81412314311524,23.15226997651181,0.1872088679174484
135.9161382344132,-9.950954516394063,0.042991795885512635
145.99217629126468,-5.297649284526163,0.197527232224829
138.75969844380586,-4.17649587277954,0.24127762042437548
154.39263177257973,2.86671019389152,0.20967911933023245
142.83537493528758,-16.239740878908936,0.1590874609553467
148.409825158052,2.267255136914621,0.17137482424394138
148.8968193248094,-27.27419619192172,0.13395307976439758
155.47171396516464,-6.2349245843607095,0.22459080475214271
144.36909867064222,20.3688913740192,0.2043796168430891
157.1081326416346,35.97426316384726,0.2493995622836702
171.074792235344,51.46848013284857,0.19237692854456515
166.11252345444177,7.998308334422266,0.11754170224887767
159.0602580568187,-21.556332204532637,0.35640996751102927
146.372726470281,-7.218583604994242,0.2227116764060391
146.97494991438614,34.025861160192605,0.19331314692554408
147.63255126833897,-24.345208775444757,0.25756417070026233
153.86173151351346,-1.9996256551215237,0.18616679795905444
156.97321244082224,-34.96559931314136,0.2492624173841882
132.75092355665018,30.11266424400811,0.2610847030448413
142.41156132292892,-24.929552399818714,0.1889527190566337
160.80837180509525,6.931546516553167,0.17793061070974975
152.91131115146598,13.289734835727495,0.1953122997015028
131.47420050889926,-16.967540315540933,0.18466793160753153
153.8941195451233,-14.743131015852013,0.11449861070514322
152.62398694169434,-20.867134190017968,0.23507170841311817
160.21250330773915,-3.288884796529336,0.12028291937184317
148.19010138188548,-47.62962310856042,0.14409140150264577
149.92343030331335,6.684463577175833,0.24327746158514266
169.53278015477383,-19.575766068963944,0.22368820238597037
141.90338073967388,-13.95264973657415,0.1136024737192553
144.76974422471903,-4.107362004335696,0.16099916396435873
145.02517612662785,-14.862653922093376,0.1789061643057883
141.03309130301022,13.7569190152597,0.2220568793950704
170.64412958264657,-24.306652410889434,0.3031197852194039
152.84425171820956,3.832578841500136,0.19728429617063878
144.34200893340812,5.774886414527672,0.2006259688102672
149.9648746801056,-16.787208845808998,0.17622779386426343
152.98639803976528,-8.055337933786435,0.17440109749264482
148.28974327674962,-6.975367801236042,0.2189033760838248
153.71362422373923,45.672494585820054,0.2040223878872176
154.76261026625022,-17.323141226243873,0.212798848050743
135.4578560226688,-12.67781440308372,0.15759828248450766
145.8375584863153,4.173274041985467,0.14412333546798387
155.96432030836965,5.123839581289875,0.13050254322154875
168.10178115269474,-8.785793238634273,0.29920529609121227
146.36127745179851,1.6053889566566428,0.25250214947613353
136.8954775938245,-8.422676490795137,0.12102581804618763
130.18438494689198,22.135853886550905,0.20322989356618282
140.11947977944743,12.741515636327081,0.22054427617245162
152.96402761198058,4.640619391621853,0.15445629613794917
148.13771137934043,20.964639222260224,0.27984468756975955
137.064362919637,-25.483856395537426,0.18008997860842152
154.7334392619986,-17.311477918948654,0.14443454857734517
139.46719055248224,-4.134378009683711,0.12452359057420259
155.33656257112935,-12.879877484374004,0.2345521836881041
140.74104663977374,67.01533565753824,0.12192519909518391
160.90603492643473,29.63416126778666,0.22178034290354812
157.26864846933316,14.32513652267904,0.24757865155819617
149.89803435881348,-10.052184448185393,0.21018443687618416
147.12564993945588,-3.3295972025978853,0.2402632717291388
144.01575561077163,26.584569584351243,0.24352780452162562
141.47750040492897,0.650516888983908,0.23423800375021747
145.62273656004618,-5.767309020635136,0.19331167869629526
149.19652967112768,27.411261263766754,0.2055862616098843
154.0645746907468,16.480800655528093,0.20768260204919134
151.26378201846558,2.631257517142742,0.37783849707087913
172.994251119586,-6.593761853905956,0.20052522799002442
153.19729506049072,12.597831596377203,0.18521654014905617
141.25079747913287,2.0188222245934777,0.1789490932501198
162.70974979918606,8.846048209223033,0.13831492540150145
151.11883476405052,9.649062214142031,0.24386436114750049
160.72356481484735,1.533383553845597,0.11356812604589306
153.40508695569628,-19.33066601736963,0.19129935586349223
147.65499854805645,36.29969621013741,0.10712999715110622
163.40591893465927,-0.5030776640119495,0.17196450735394858
163.9620192565288,30.038644511391325,0.2880190288780846
142.45918238242712,-13.971886463468943,0.160197986937582
165.78425540486774,9.357530070338255,0.15610731018623747
147.2075284366062,13.765452600578412,0.2941389780517387
148.32158195461454,2.716022545835109,0.19727188495549128
168.04451425557158,29.99805960496602,0.21618370283138982
149.2467487813639,-10.594986254855208,0.3186131846301803
143.04545977503125,-20.52430719872791,0.1780837825257671
151.84469209465797,-0.06997121153609026,0.1650186504120978
162.49411133334513,18.03071799831413,0.1523629781372261
159.27343109871506,18.763271407190356,0.16176336554614576
158.7221204511526,-5.463227105960192,0.14631374726074142
146.19627877637478,-21.768387263556924,0.16193616859560167
130.11292880370394,-3.365956003442458,0.11410246739189023
154.0518235118756,-13.667115759453317,0.2168201364074969
173.80840720330858,-4.184121366610051,0.17648452827570343
154.77752809388994,34.68341669242694,0.1841340807259596
153.83132577279295,2.8482407530476737,0.18182964689474956
151.18486150349418,-7.876441207072984,0.27345206425571944
163.47050015692935,22.79634044628219,0.22615539368880552
141.45399313688443,-20.135877348833308,0.15307609705613753
129.00628120203797,-20.89271175492675,0.1871271158105192
142.39815401298486,10.856013308813184,0.23360263609068582
164.87560510885913,2.693132367322895,0.17169718059726494
160.62200375583518,4.707049358199237,0.27519049017130726
147.8837415646032,12.687827316874902,0.21585765594067993
141.15461527867535,0.7409679170103791,0.2285738992105273
165.9498392901071,2.904856000402327,0.17336327381290362
135.67263850602382,23.426035664463672,0.2692433273248735
147.21341777968317,-1.9632967239874135,0.16205936932162757
166.1502563627128,15.590926055733602,0.13904453489207538
151.350945044967,20.111760334478564,0.1521742939429062
147.62047029184617,-35.371221897253264,0.13664499661257146
143.94634536695906,-8.871812159572137,0.15189327051437426
168.94705304105887,13.124048647533197,0.21497255523706602
159.66532004183185,-8.829978138892677,0.16013819247241712
153.069765773982,17.01485438299699,0.18622885038401904
152.66158292748534,30.55384830864378,0.1293280989775298
154.1477716650369,5.471511320526675,0.22647953594221898
158.75073708536013,3.161513319262703,0.2280413106545685
151.44937148040108,25.5256239561296,0.2167898746319276
145.45899139428963,15.019667405080366,0.26521378949703506
128.56198553854497,-15.954848608456507,0.2566210313410126
155.7853843017178,29.926466438994993,0.24218618836343248
130.84206866406404,-2.2802012241301397,0.09889287241041829
142.84633549946497,-21.15461862596964,0.2527515093947451
137.30285781757837,10.719931365131686,0.07733626455125818
137.57822878358974,-12.59909876671605,0.15826927639019847
144.22995631989997,5.0519041628644565,0.21297013748524954
147.3903581931132,-20.738387580771246,0.23670372286280772
141.98713245876493,0.6936436818896368,0.124183385304868
159.71146005756887,-34.93993358149544,0.21213621962546886
142.40911040516013,-12.800814250542325,0.1634878487954624
148.36107370982938,-5.01730724520974,0.21487123800960423
154.07219858530712,-9.162138297323073,0.18849005085615025
139.06058882209757,-22.056987607578282,0.25275153796650157
133.67039285777886,-19.89373516721625,0.24096117592289584
171.7080891598507,6.193196143749545,0.25700089274665555
150.2164124670848,29.218115773883508,0.039479880059632794
162.0739673077165,5.160253176814898,0.18952478754715701
136.25083060148214,-26.94130442806174,0.20394036118057254
152.94958207804356,19.985625922105605,0.10703734678374488
148.02554925502795,-7.360401555000492,0.26345090719928305
148.41967579816477,1.4873894647824915,0.21861179744100204
142.30947131168713,-18.839065515382817,0.17200322050727773
136.3865702717393,-30.580792006778733,0.21651384691929645
164.16443171464047,1.1330615426369564,0.23252386516229476
135.7537984337613,-4.811195053859532,0.17158704407091804
129.75583887711286,-4.811349566500596,0.24550538031736208
153.18834690999444,9.43059718077505,0.2190231614652795
147.1775057181028,-28.069824413348158,0.15813430930394234
133.22309449237991,-19.223209730452712,0.24784362644116203
119.17241242925806,26.663080024063582,0.20294874669646323
133.08524255584132,-1.6348281587079319,0.16000975540435047
163.97674359800374,-2.211050981830266,0.21194897800591367
152.2016307721385,16.33922842623286,0.23973170328279905
154.0196027649011,-26.677803369294697,0.16873574427201843
147.34267828256458,-23.784487949241218,0.16258372879244298
138.093072022317,21.484809995390854,0.2400358469116236
146.406439745375,-6.715273065307624,0.1853690665412539
147.45445185686106,15.666209118690773,0.13636367232926583
145.4013134157903,26.615045707870507,0.19640484529538302
141.01633757485854,9.565295064314839,0.17285534363516586
136.4788557377107,22.24668340768282,0.2357205166947663
145.9454837533243,9.529477953019844,0.15103581974971214
157.76911359738293,22.829806935351066,0.20813716096192314
141.5680390848792,-60.28503745803336,0.277860116448852
144.33871478132767,4.300491640033789,0.16306062448475708
160.88329800512128,-9.495644494383402,0.1495092876117705
169.30654944148932,-3.3054832179548956,0.17470920077351493
151.61985536728864,8.315691008710465,0.20784692541670824
156.2595148831287,-5.673238958679797,0.1822860827944019
136.71803710126997,21.655020464377152,0.17767832707128745
146.44254502499976,4.14963270866466,0.18348220480476418
142.8032801818127,-6.927528903719043,0.19577927035752524
145.90833803795405,37.244492396996044,0.31184665983422705
138.66032457095437,38.020289447275324,0.030254609798830823
138.31335883837423,3.0305662057999356,0.18872175302317912
158.9967137043248,-0.1493670583986444,0.17077929524731367
156.75366768571382,20.422432912810677,0.19855406443554502
155.57255792307197,-23.66628781690762,0.18689266716327743
152.08526430163107,38.466913549143875,0.13466106305813103
144.99122573974077,-1.8809040299894693,0.29299728716375795
158.47103312296036,3.4976371419811194,0.2673370271633642
141.2762869071944,-7.469997239152374,0.20257842831297787
149.1113473493975,-17.846894596380928,0.10011681001956683
143.96653183116572,-52.47472741171546,0.22809400230717378
168.8742277549425,-32.027723695068175,0.23746711098382853
124.36571666711993,9.739236626576641,0.2038862312886094
140.84989612176994,26.760039300895105,0.2346728355066508
156.33637444934297,-7.4313074488279165,0.23794809121927
152.60223557579383,-9.86155918460535,0.14166093050356648
161.78373910118484,-1.2789563605051146,0.2477393114598102
137.65224365737402,-15.363231608088325,0.2057378085414514
158.3038587534911,-1.6517831638220732,0.14442722072675404
148.51535821167508,3.2783539411652014,0.14006930403589302
148.6616435387699,14.693645743036885,0.14367511602415714
143.42037227945028,-11.394371485713426,0.2072930737050998
130.42892467767064,2.7093715081306935,0.2484847028733943
153.40927883251786,-25.781704162807586,0.14446807771272474
152.3834930045836,14.322879381086544,0.3040772212154465
156.08738542092956,-8.337531353824106,0.16834484421134435
137.28168348488327,16.081013712726993,0.24548281338196187
148.82493475440546,-28.14115434560383,0.1814596064640226
162.59060633921445,7.0705847321913575,0.15422017021370454
161.61979183559566,9.103428427312974,0.19294634011087736
133.96668147671497,25.489132181399693,0.2324914687319098
142.1071030768378,1.388557902998957,0.28904523297420703
152.43421419924638,-2.4473876294901196,0.15249581502021292
152.20879160543868,-12.142664813500783,0.21408924476074365
143.0498106741664,16.1375735913945,0.22264430177230066
155.40629924124315,27.96156650630077,0.27398520071483823
142.36691982007716,-15.460393937400607,0.20319557973654137
134.87771733406382,-11.58639628696454,0.25775630502367186
151.42295918652343,-7.270736116296011,0.15836445801181587
147.00683768677786,-14.162104981548218,0.20637439724973403
153.59899350416524,9.916048442377091,0.3253860178006388
155.7498365945328,14.651841901500502,0.14578576923828
143.65527470368133,16.453393220188673,0.15500412176442926
138.57634768548337,0.3382122434148396,0.3049982609873423
148.25092774518032,24.10083989828777,0.15553531746384858
150.63097558480766,-2.7560602947763795,0.2315129151711372
137.55313882016074,13.497509737047938,0.14594808515653304
146.41398002414874,21.96573526238591,0.20613684513422392
138.07896062750336,18.680570002970715,0.1431512120141964
174.84120062664687,3.794101118839819,0.28952640383027667
164.69205914080243,-46.888691997814746,0.22210799668241657
136.17318026460498,1.9232689569094559,0.2392340780992539
152.61710888211766,20.125627531092064,0.1991187070524376
145.5193328755528,39.91802631059865,0.2103136042701009
135.9629029579468,-12.970341416725466,0.23770652693853753
134.434077585051,28.53165779274102,0.2242413401854512
163.80190494830205,3.01373380431424,0.26546031627573463
155.2122898357713,-4.660649321096523,0.2739360286198383
172.04328315919582,21.626591016655222,0.0944043405386545
152.15977902173395,22.37374043462088,0.2053458260784975
153.97254258683265,1.728211366453659,0.14043396249869977
155.6573970885896,-14.680012970578431,0.1262941899991985
142.95865901681324,3.3386700690667444,0.28718534743078317
136.50037039756717,32.386847673454206,0.16717480022353834
165.5825148297426,2.3850861830107455,0.17358810897587332
151.6809631355386,17.859045389578647,0.23637164916732772
152.11812351884632,28.919023244497723,0.2343994959863829
158.68671896886283,1.7706446243831009,0.216840930272944
142.2662799313716,-30.72338166106512,0.28231947807925456
143.24477016405737,11.14251317369468,0.22707619971189047
148.61533427773728,-9.171873369079282,0.14134501428804705
162.86246811345057,-15.645751814533282,0.26471479065282016
126.06402825561932,-1.071972075940165,0.19630420274927596
161.9038268490466,19.63001168717578,0.1916068865645331
169.39522429950836,18.313336356543623,0.1885062297510167
144.40688704795969,23.270719946157715,0.30250546116257687
149.47454281664514,21.467586200804188,0.24178421778301157
137.33245417572388,-14.142211923880893,0.06596683055376587
141.13155652151977,-13.396971271181355,0.10731565062960569
143.6544748401831,0.6166684375341093,0.2673700377497747
137.6605567498517,-5.643114929187162,0.2032262398096246
159.72299489713325,-22.257612680149084,0.15231678827630368
152.45672193074978,-7.185206327784504,0.19884170752360525
155.9184860472902,-0.7252353822915971,0.11543319450626194
148.73413006742834,-3.4819384714737738,0.2641114859742526
134.80913685218098,-41.7142038968929,0.22950479845066632
148.71232151681087,7.487984789333458,0.15329191435818407
142.50103005656328,20.10804225666152,0.21548745607950154
168.2414687903968,-23.891827791140162,0.20140233887958423
143.8210527154492,42.063167250667135,0.1746794647077137
144.30746518698587,-41.81892510845578,0.11599218066706693
117.50516237078182,51.255156105681294,0.31408927376270024
152.89190497335144,58.52523289439792,0.14949163459022685
145.14523006863192,31.179118670007078,0.24992584221547867
159.0950261346524,-14.321791307348011,0.20970682445167166
132.9663540153959,-29.46784397487944,0.20454295895696914
161.50426654780094,-8.179669318693788,0.14809568385201882
145.13792091356368,-34.84686242074243,0.2614015450668646
137.46142982405033,-12.706212868766345,0.2117027223569149
166.1814972288607,-14.149149801710191,0.19991178643983784
145.08426085664706,-3.0380883161948997,0.19134227709662396
129.07014380075287,-8.842797255260502,0.1896426416424307
147.43098012399105,1.5498450742417977,0.2551727423350721
165.76830300076733,-54.40491062129517,0.2308985569325936
145.78718953661766,11.299340055129948,0.28132371894936853
155.89463801219526,0.6514417921954857,0.12161756317416565
140.46863565274208,-10.453202916621443,0.1886367570316796
134.53870207876773,2.7222175987301167,0.16125699678740424
143.88564865934345,44.40202100226638,0.20401161623633884
148.604689094805,-5.168351109266679,0.18048040757133857
130.44458354106104,-16.37088098226122,0.2874796952810716
141.44275020325824,38.27894335460194,0.12008602519050934
134.68449939593106,28.02947222302351,0.17806773318240898
167.9641794224374,5.90433681360221,0.22508036357814068
141.27897791234867,-0.06958209851537814,0.12090384729490375
173.3577206927477,-25.658229491210854,0.22415024307632714
132.25403160851897,-14.387738568900364,0.16876971973827185
139.0434305675,-15.970090006647176,0.26562186929181564
157.65737215485885,-2.934051713590358,0.21024385436364984
136.976151843284,-11.097390650161456,0.23829970648776766
155.72340909985172,25.05924659604915,0.21948218442434367
166.7458844240549,-2.8105846874075198,0.18515437192861678
143.67621698524775,-20.170337670339503,0.26277571764337626
142.7874200868612,8.266591507666751,0.13949788800230262
142.946379130598,12.472097489215006,0.19346090629090046
154.36978346389807,19.68327738488124,0.18033656769680356
149.05229557358973,-0.833039869307814,0.1934261451740483
157.61931709957736,41.3738981251573,0.1458469283611109
159.78124617141518,4.347821161079739,0.20580346319571116
153.26226453836372,-20.843684017017857,0.19408813308682302
148.90814042833244,11.323877236633207,0.2595094952690825
136.4575023394555,26.36517152631395,0.18099636551564055
159.13747721578164,-3.5098082786615556,0.2420921772581884
156.81380912091703,-7.646191018230227,0.19791225109045052
147.61444465109318,-11.664336206952113,0.19255055025810594
147.8611507549598,8.950980066886421,0.17224344353434795
144.72210623626034,-22.61011442780518,0.21306080903944496
125.74958102736701,-26.69097322263942,0.1498080934524834
149.3977056220778,-26.536849063142665,0.23317675512365366
143.5969170780822,19.281178766316614,0.20098856051735622
134.90073989432742,-0.46559925960400617,0.13583288594312798
161.40140037447966,-8.229683758634533,0.21676612219082494
159.55599401319074,21.750633399786846,0.16975894454051177
137.9387406406796,18.761587123494213,0.2835708195077478
146.21129114546034,15.677182745523535,0.20318579468851658
152.61598384506678,-39.14129359139662,0.17388630131859578
136.9641951321923,-1.7661165666932601,0.23542920814888202
132.46599554954466,24.507053082992364,0.1654858073185237
145.81303331100727,-27.543656467766958,0.238919009898805
150.08613234019307,15.668090851595903,0.1323131120500251
171.79533970435799,22.611203244861127,0.22923943547263131
139.74627155210482,28.762243677241276,0.1237174166825006
147.09696057172783,13.232959579683977,0.09297878674482124
141.48071993217206,20.497899398601614,0.23794405624643353
148.65291334487878,-8.457140670713992,0.19680176105152938
151.12890712561122,24.63773502801679,0.263605691309749
151.60782074223977,37.26410273223239,0.1698480847630033
154.34626857606364,-19.79606755184344,0.22353979335468793
135.25731894306696,27.14108095212535,0.29881344111614744
153.04106979000474,48.66021014307084,0.11340497676725318
156.94681822987218,9.166347064704677,0.21086287705226234
162.8399476699022,-28.49600728693772,0.25709647114615825
128.62369635966195,25.316288970359466,0.12452514104250495
164.14869630022665,-19.503279411107957,0.19132824074972157
154.63253102643688,34.91023170901942,0.30283669494753707
147.99023239391556,28.103517743825385,0.16756643304488517
157.84086796302947,13.122652592514372,0.1778203775351584
158.53568135190815,4.6052065862733595,0.1510032060728188
161.23511234123993,-2.7768359791723896,0.12631569968399894
167.84144828768217,4.058178624739595,0.24296730898281635
155.03534804252206,20.551813506473145,0.2298572085895174
147.40365290643632,15.269073630355647,0.2699168669501659
172.45352842327986,1.9841650501060202,0.17710017733433958
147.02497011004488,6.206044845252633,0.2616373166673092
156.40438603777397,10.830761214599356,0.281965009532803
153.72313713049198,-32.178029436116184,0.20016345095958324
142.96262608932065,0.41786774136292903,0.29016150662009604
153.05182555494838,12.018287987874828,0.2572825466101437
166.17397397615355,12.215763153734498,0.12961644966161656
142.08269448068592,9.576523869438166,0.14671192373065783
164.7308951031717,-16.029876464822895,0.19086133018881063
168.49336894560906,-30.927832496753354,0.22904288874062367
143.7961424824619,-36.31744108996863,0.10207128590657431
143.76560999704466,1.1710981442345239,0.15413515445843876
146.82360549760423,19.454075482459693,0.22483801272680154
163.25206531691074,-5.264594400366766,0.20362265123542822
144.09684059146807,16.406225571462517,0.16448509575316858
148.75101544938468,-29.840883931879063,0.17910209251208956
155.78822779775126,-11.374924789953392,0.21206328820916154
133.2819181587769,-13.711579383646658,0.09601053451449544
145.84906514068575,29.471751380582102,0.21271338670120668
137.2240953360738,20.40216864530741,0.20711528461627063
156.32174137582643,-16.21194043731603,0.27689499005738294
150.01879651789417,-12.598667331858096,0.20898571718266523
139.75018631852373,19.25322488429895,0.1305829370842659
146.3164807785247,2.851006279705728,0.18925453326695302
159.6084626077363,-23.571627608916987,0.20488147175010024
144.9856514731431,-12.546273750971206,0.14175612709315472
169.28513846325833,-10.037681555375519,0.18357350945572923
164.59909143033133,9.421108967172389,0.08995864798711235
154.5153136860984,-15.030692011991448,0.37179249127417374
160.71048874771455,-27.48671699085496,0.17824688444356937
167.09415377293627,-17.315601354562983,0.21076069299644978
169.30533871015638,-3.0550363765152015,0.20547630556298582
154.65036336832992,-6.031318629264897,0.12451285143522903
149.8057181451678,23.419582979358438,0.17280194251971517
152.41075170131057,29.74795124868566,0.2559711798192709
151.1364372954292,-21.314103998397144,0.19350712695272723
151.78657014816005,15.963735188781873,0.21519006092492363
160.96941029868944,-18.144277394609432,0.22046610794262703
149.49824843168903,-11.136330881830956,0.20712943303120304
133.6594002732084,-2.230584044797027,0.16442288529563037
162.63047581551297,-12.934231068880667,0.22155838268022301
153.72337696908943,-6.372948515898431,0.20344331640628446
150.33165466292164,8.421863938450262,0.1416473707314108
162.2751944962088,-2.2642049718695816,0.11683281188250348
144.4339037497454,4.006238079555241,0.2070359540606074
164.04230389298215,-10.267232912698901,0.09378317144251021
143.28797696146754,-14.513788755116117,0.2014798009390308
159.238035925434,19.06167804228677,0.20924429227783795
144.13744995140868,12.065309949618259,0.23058123496162025
146.32177268203344,22.817833441589983,0.31314380977851614
162.60171681474205,-9.584325909238604,0.23212972043123226
149.85561611722187,-19.8285960454182,0.18925153012768123
126.17479247636908,3.00576159807523,0.20324751322891318
148.98772019198722,-9.685318289428995,0.23044959261566908
163.48011196966124,-21.113720093691374,0.10607543559773162
144.9627189263508,24.429078191556375,0.19613186579800324
160.4221924729987,-9.060553073259515,0.20409144754905423
145.9702647969441,26.65696435754221,0.12466380783324404
156.9630204042601,-16.03993883242345,0.16338722739636674
161.7114450434796,13.443626913198447,0.17351564222067173
150.67792826448454,22.026034407417647,0.19245047019521394
136.72523718722894,19.099952646205374,0.18333041177474324
151.55789573341994,6.218987588513892,0.16045073290429124
145.80567868737398,-11.836261592755369,0.25636194563774384
149.87371921810475,22.533691037024862,0.12012423332733503
148.21152461543235,12.603270908476865,0.22024321585908407
164.07777357275614,18.943676418913164,0.1879747875649326
151.6246660699016,-7.277908715384314,0.2573854227037212
142.30667982701488,-5.218286494913238,0.23296485988516663
140.82576739499436,6.424058669066769,0.17124477989296705
146.0134255263887,8.061167038638294,0.2310034360196345
143.01581731970643,-15.553156545392666,0.09000270164301737
148.55677911173973,-31.719443173448735,0.20556715142740895
143.50813866881018,5.066634960174936,0.2585139440152462
156.07207219999742,16.75076581078422,0.169854019367645
152.6218927247491,-16.963885011096917,0.2022013360393795
144.0809776751614,32.61564803076778,0.24406831421518427
159.29885584126188,-31.875786395320276,0.31706268596779136
139.9192198318983,-17.390940947116384,0.266955964803402
153.6861372851355,9.938746794734325,0.18742598199662072
161.2936717753468,-37.49773398547892,0.14484805883339064
162.44184681578184,1.1645998575596082,0.1814528581894877
136.18794864541584,25.88602305474014,0.18320501850685367
149.18260588874,9.1363446460038,0.2669369513993596
162.03936906354457,-5.371426640104523,0.18115815828441775
152.75284566332144,-3.6902968494191066,0.11732011296361156
173.70546519785285,9.17045741674418,0.28766750567924826
137.28049694221016,17.87343547441125,0.24109213890190975
141.78404522381703,7.016102469096779,0.24606992327516172
148.98656657247278,-2.005125451544876,0.21891930421926414
137.24325929810414,0.9398266424900585,0.24788971730212678
152.10968920416764,-21.522581001823838,0.18140561480738449
140.20134411927512,-18.83732458291825,0.26193084503293373
154.5738709314314,-20.880956754224663,0.23205985011159982
145.95452528384263,23.142436656119706,0.15770634316294407
139.15645436880507,25.646709846795368,0.20909187935247253
147.1383695464985,1.5479343715056173,0.16944236558551906
161.8381159935362,-2.5118007582459168,0.1911745902774365
145.87740576759327,-37.43784539179241,0.2609054623290462
152.03010004854886,32.9774204062368,0.2578739171586041
160.69240537729468,-8.540298275763117,0.26728623381347427
130.20775731789456,-12.930564307339292,0.26954395699252864
159.00645081590645,-9.321952248067959,0.18087317770043576
133.13282958547143,-12.008572988239585,0.18189710345907578
156.6383693116709,-26.048731075314233,0.16607660181188358
155.61900814447907,-11.397920969161063,0.1863353532346746
133.85181866003515,24.357414647532973,0.17656812411309905
145.53809892072928,29.540415372520933,0.19773408829690634
151.43720338886538,-43.35368248685554,0.29153887769484
139.49948891049442,-35.58301822314643,0.17530680683994687
151.9384592940891,28.552324124305418,0.15851400932309134
170.38218021171073,-17.638116330414956,0.145887003035937
149.2392288159416,-13.268831190363903,0.20940012469438332
162.08041006283145,11.455658811320069,0.0863999122071343
149.56190359870942,-1.6335189753583519,0.2552714224597145
148.26652792136917,-12.986910055563436,0.1310064481140066
137.34151788479141,-26.214329607172747,0.21223462775475754
145.41520110418156,34.68523933365676,0.06649556330400005
162.44730887429245,5.648691103263812,0.18813779671558598
147.88702201403643,-26.650359211050162,0.23114841888831364
158.49763545302767,2.8264329194109243,0.1920258382952917
141.81750782980245,-23.806739650741903,0.3918888116113295
155.98254942752175,26.62290594939593,0.19621390968542807
159.0897690940126,8.515516404409,0.18560286256432137
152.4911153882895,-5.889189751448574,0.2044331897519351
160.08775999117802,16.62240083716739,0.258471642532521
154.18717831864348,-9.10876471465724,0.23878030075121268
145.84683459105435,18.040854039844948,0.14973641496129503
137.67540493818524,11.760285638488137,0.2010330256402971
162.54151120945963,16.45455032432304,0.13361383614879468
147.41151550664273,14.56821275426923,0.24149711710234198
126.46498896149853,27.8976039280129,0.11620151460505461
154.50515349662848,-32.04145290983533,0.21438779491801718
162.36666208688797,-64.72763399238269,0.22383147796196196
158.80579904172725,26.913589095106616,0.2241550494094784
131.87433170897248,4.441100452390101,0.1593640273707134
140.14395764096122,-31.48500826472716,0.16990916107510307
160.70852619307792,26.096236637684584,0.25660384643450884
136.5720208986763,20.653823724409605,0.23704424659243878
153.05556393771934,39.06916420842408,0.13892754780777944
153.82520300745406,3.3526835502410526,0.12536225288320402
154.69229616834704,3.889410574915235,0.15681473235736432
154.66871111485833,-4.704164193505688,0.2945850585174594
151.73293885985012,-29.281336230763422,0.21952237728066687
156.39662762068713,-44.95041062196387,0.20177548212625768
145.82203400837722,41.732997520310136,0.1904317527534166
144.72016628013057,8.381336766940157,0.2693250142354127
168.79191333781648,20.457265218155342,0.13996504014803904
149.36833772618672,-5.9265506537783,0.1437264723963365
149.76794585584906,-8.943289235682384,0.15727594652513405
169.48644067416635,-14.623487263809478,0.22441758786640584
144.6978419407008,-10.053271265185062,0.24233969273649197
146.01601175733154,-8.864450188360738,0.18087384107784818
124.34035617758687,-36.61101289529826,0.10914094114202849
159.66783939840107,12.4648930337029,0.20697508094302347
147.11985275389554,16.553292640020942,0.26946859745340057
152.36229927790023,-28.894693470570378,0.27282901583457764
158.6343820330064,33.66530804642303,0.22817307819721422
144.27614945733524,-0.8743762233019287,0.23614267492452945
141.58788553294352,11.201226554003245,0.2793429339499439
147.82764675403305,6.760230968745349,0.10273109001506614
149.23674711843287,5.502981061610873,0.2064090087005644
159.07946510432626,27.15157346249111,0.1982916259919915
150.81868385864007,-16.730615940926416,0.1514044652133313
150.05170390557006,-24.904302908631397,0.26686185744774005
132.59908070772315,12.803723413128822,0.22798504626293972
130.3362551107224,-29.76892689459198,0.23735157822346825
158.65328507538206,7.86750363228327,0.23636856162099473
143.6718555692917,-10.606011368862598,0.1805842416037696
143.70594599721198,5.189032462723957,0.2544489811633389
148.19002382423074,15.02445933870925,0.2479935374584959
153.08967091460096,-9.218292357808267,0.20573857303970808
141.72470096563706,-6.022986583166139,0.2703466607455881
147.444292554676,-9.57041874027598,0.19317023855017462
167.3401679304652,-11.127550381550053,0.2217963812797344
170.1450859175329,-27.590459466262956,0.19502228389229137
149.34133744157404,-9.177934715697008,0.21399979128004704
152.86770282165622,-0.629901390950453,0.19832441311473642
165.79395261403238,-1.7984482324744593,0.18615217130453468
135.77373635709827,27.808037158334304,0.2842247423477344
151.41017493604312,4.719922717204678,0.12341080075121705
150.1770244908641,10.22839281538624,0.18444019118244204
153.61555808886055,-25.933299091017822,0.07878452107715538
167.6184830938936,6.978008277729575,0.28700921924724593
154.49001021590595,11.363911846235894,0.2409548385438514
161.9664232287125,35.14310907501826,0.2756292458472536
151.8901054595007,-26.965060221494518,0.23177834689441887
157.6239724208885,-5.164785272149995,0.18424298087344615
139.16834792531114,-0.8449899793972683,0.08606022229404708
155.90317433612643,-30.200041306475562,0.18147789823450328
142.1419186525132,-2.4997231200203127,0.15392652278189098
159.9583816128456,-8.688838232877082,0.16357490257603452
150.24949818686756,28.25698719326165,0.2237696347552766
148.74284128422,59.81700965877228,0.22218146309697268
142.23743407642127,-14.342284361793098,0.28579489425560467
134.17318415020014,-1.0997098454185212,0.23239710387662957
154.02503468163326,7.203453493523863,0.16343951633766507
149.3224233672436,-19.85181969081873,0.1787983735061897
146.82101709168356,-12.338547466469423,0.13440745842705504
146.8242838241397,20.058000453958048,0.24585363455130466
133.4156677605201,51.84422751310979,0.21807147560631931
158.20130778459426,15.07518655497041,0.20012722496691857
151.11781919619742,-22.941700103622395,0.17805779273104305
139.20924705332237,16.77374611560113,0.14384805215498653
